ncols         220
nrows         47
xllcorner     330000
yllcorner     -1005000
cellsize      1000
NODATA_value  -9999
-252.3696 -154.2902 -28.81448 81.37726 153.7014 176.4312 174.2765 140.791 70.26089 -39.358 -166.6523 -293.1501 -395.7206 -446.4605 -457.6736 -464.298 -471.8904 -475.4781 -475.0111 -458.5935 -426.7205 -392.8802 -339.9648 -264.6915 -163.8476 -41.54312 80.60214 200.5664 301.0742 385.5918 461.898 509.2018 624.5423 637.7914 566.032 642.6421 679.9606 720.0743 800.1624 838.1849 853.7598 831.3536 804.7495 787.8999 763.1339 747.253 747.9094 756.4633 762.2316 686.1967 517.0046 337.4868 76.89539 -185.7065 -419.4087 -598.6134 -560.4658 -503.0804 -548.7593 -615.7302 -674.3721 -668.2349 -661.1248 -628.7629 -588.4271 -509.1924 -459.5261 -380.9505 -321.8629 -271.054 -179.9027 -119.2716 -30.82565 34.15652 77.36371 140.9326 175.1654 220.4203 335.2851 485.6791 614.6122 788.0155 1015.273 1203.907 1326.788 1388.044 1419.43 1415.313 1430.609 1467.554 1451.724 1411.211 1329.2 1237.99 1186.411 1135.728 1121.182 1139.637 1152.472 1169.835 1190.005 1199.062 1218.403 1256.102 1304.615 1435.871 1583.864 1496.303 1456.052 1450.272 1699.179 1501.742 1696.471 1669.779 1785.045 1493.474 1407.69 1436.276 1445.489 1430.271 1346.69 1275.229 1185.125 1158.012 1120.561 1059.525 1021.912 971.7272 936.5594 912.5372 877.9708 860.4907 834.6 815.6635 812.6494 821.8425 814.4146 803.3372 797.8102 798.9855 814.0699 827.988 851.0372 874.3975 895.499 917.5355 928.0686 937.9693 953.1301 974.3821 997.4304 1012.486 1018.571 1019.562 1013.684 973.9971 941.4008 901.6556 883.3724 885.1372 866.5624 850.9263 799.7898 753.0743 714.208 646.7231 605.9623 544.9231 505.3955 480.1465 433.855 411.0117 371.5594 344.8876 328.5498 302.2457 287.7468 265.6764 252.1235 245.4052 232.5853 223.8523 204.9194 186.215 172.7078 155.6561 153.8027 150.3087 153.9326 160.7789 153.1577 148.3468 130.2505 112.9841 98.50513 81.22693 71.56055 61.10107 56.96216 57.78296 59.48474 64.68872 72.03394 79.58386 85.58521 89.28809 88.91797 91.10071 97.58472 108.4844 125.2726 143.2324 162.2654 177.6824 192.7092 205.5742 222.458 245.1298 268.1318 294.017
-223.567 -130.4003 -6.681702 104.1574 167.323 175.473 138.0745 58.2438 -41.71158 -148.9473 -259.1322 -356.7444 -423.5747 -444.6926 -449.6913 -465.3217 -476.46 -478.3847 -475.9863 -468.3786 -446.715 -421.3729 -384.8196 -315.1291 -206.8788 -82.70911 47.18069 177.6902 288.9202 378.3345 446.684 478.5037 571.9184 669.1913 663.8715 638.0551 690.5356 776.8344 790.1425 774.3718 756.437 719.6475 696.6998 691.3117 680.8929 670.4208 677.449 701.6067 688.6636 593.1056 408.8489 211.7483 -61.49188 -321.7789 -536.2147 -721.2291 -699.9655 -641.8268 -651.0903 -672.2687 -732.3994 -711.7769 -682.4796 -645.6799 -600.373 -514.0671 -460.4743 -375.5174 -311.0162 -256.7998 -164.1358 -104.4052 -19.29996 40.82587 80.3064 139.6461 168.8165 227.1351 346.741 494.8011 629.5119 790.678 1004.32 1204.257 1342.081 1405.686 1453.583 1462.094 1492.785 1529.73 1499.838 1435.768 1344.832 1264.594 1214.639 1182.66 1163.482 1167.851 1180.224 1195.818 1215.325 1234.53 1298.127 1329.837 1343.402 1358.568 1428.599 1444.296 1421.134 1453.496 1728.499 1712.202 1692.685 1672.918 1644.438 1636.438 1544.964 1486.229 1442.746 1399.772 1368.932 1334.377 1246.451 1172.698 1151.998 1081.965 1035.9 987.0665 946.5537 916.5134 875.1866 852.5833 818.6672 793.3323 776.8107 782.4086 778.0786 759.7665 749.8611 749.1545 760.437 771.963 794.7152 821.5446 849.0798 880.553 898.7021 913.713 928.4552 948.8824 975.9028 992.7323 1003.532 1007.574 1005.45 971.0457 939.6421 902.2312 887.018 891.715 875.9899 862.0335 811.6377 764.981 725.9354 658.481 618.4479 559.5863 522.0647 498.0209 452.8522 429.2471 388.3149 361.5967 345.4653 319.2863 305.4059 283.7357 270.0228 262.7151 250.1674 241.3833 222.5999 204.9943 193.8589 180.3733 182.163 181.239 185.3646 190.1561 178.272 169.058 147.3671 129.1948 115.1071 97.005 86.76685 75.2395 69.77942 68.91614 68.49597 71.9231 77.90222 86.20703 94.63306 100.8441 102.7151 105.6168 112.1924 123.1479 138.7313 154.5802 170.7611 183.8412 196.9961 208.2015 223.4836 244.2487 265.795 290.1849
-207.1807 -125.9815 -4.349426 99.245 153.4902 150.1549 74.87399 -46.10858 -167.1262 -256.3959 -338.0188 -394.7313 -428.7585 -430.7671 -441.3597 -468.6388 -482.7011 -486.1818 -482.2641 -476.9305 -460.6982 -440.4129 -416.1886 -361.2345 -258.1425 -136.2853 -3.278381 137.8179 260.7969 363.4637 438.1928 460.2953 512.4745 602.7509 646.2303 632.4588 665.6211 721.3049 714.5579 693.3812 659.8896 622.1043 590.278 572.1978 587.1584 585.8655 574.8 583.9175 554.3674 444.4109 247.3425 50.25281 -215.4931 -456.6032 -649.5497 -829.4268 -876.8116 -838.441 -763.1668 -736.0336 -767.2443 -746.2521 -715.959 -672.1175 -622.5725 -527.2646 -467.0475 -371.9909 -300.4482 -241.4539 -146.6182 -87.52841 -6.346954 49.02621 84.96115 140.9385 168.6338 215.6316 333.1676 497.5529 652.1218 807.4678 1006.783 1239.719 1362.249 1399.775 1468.905 1486.06 1522.56 1548.203 1511.855 1433.495 1343.443 1282.776 1240.286 1213.161 1195.735 1196.839 1229.483 1246.766 1254.241 1268.582 1322.419 1337.879 1369.56 1390.068 1398.823 1436.32 1394.916 1368.317 1656.588 1692.486 1681.077 1669.649 1635.734 1594.443 1553.711 1494.884 1429.685 1404.113 1356.832 1334.359 1266.986 1187.135 1146.351 1108.207 1053.305 989.8594 954.1913 918.6893 865.5563 835.6688 790.3289 754.6277 729.0042 706.4423 714.9545 689.2416 677.8972 675.0837 682.1184 690.029 710.5452 739.9222 771.338 811.7906 837.7728 863.1109 883.1216 906.7029 941.576 961.1344 975.5524 980.3862 981.1989 955.1749 929.5817 899.071 890.0051 897.9185 884.33 871.4944 822.255 776.1659 738.1366 671.9852 633.8536 578.2307 543.129 521.3813 479.2776 456.8395 415.6022 388.7927 373.4194 347.6865 333.9823 312.4301 298.6085 290.8354 278.296 268.9022 250.851 235.9937 229.0665 221.3766 226.7428 225.634 227.5598 229.0132 213.0511 200.5546 176.7688 158.0653 144.0553 124.7615 113.4906 100.7548 94.90344 92.95361 90.85767 93.09387 96.88013 103.7822 112.4941 119.8361 122.9916 126.1182 132.1572 142.0514 154.8372 167.6195 180.8107 190.5411 200.2979 209.0271 221.4618 239.4182 259.171 281.3296
-211.5288 -145.3468 -44.16611 55.98636 109.2086 86.93832 -5.903442 -136.5052 -266.3439 -347.5226 -389.053 -406.5314 -418.5963 -425.4132 -443.8179 -469.4872 -484.7291 -490.2988 -487.6672 -482.3819 -467.6803 -448.7839 -425.3044 -390.2586 -307.9521 -186.2429 -55.6517 89.60077 228.2288 349.1647 437.7006 471.8397 482.5669 540.3444 605.8208 592.7552 620.6426 646.2269 619.9146 613.7461 596.6059 563.0279 520.2701 515.1525 509.4739 467.1738 459.4409 444.1365 399.2528 288.4172 98.22021 -82.22772 -325.2475 -535.9548 -702.1781 -857.5542 -924.9203 -889.3741 -793.4683 -766.53 -771.4114 -762.2223 -741.6442 -694.7031 -645.661 -545.7622 -479.8061 -378.0473 -300.6913 -236.7209 -139.9728 -82.12119 -3.849762 49.3092 83.22278 135.8079 173.0507 261.1737 430.6363 657.3439 815.265 869.0715 1068.828 1323.619 1376.282 1435.022 1511.616 1518.549 1565.612 1552.916 1497.061 1433.144 1357.676 1300.907 1265.617 1238.202 1231.766 1259.347 1280.451 1296.583 1295.586 1295.664 1381.603 1351.529 1370.401 1394.783 1404.678 1555.958 1543.182 1436.776 1698.125 1688.663 1689.617 1645.414 1625.206 1576.052 1541.216 1478.822 1426.756 1397.005 1344.401 1314.994 1255.298 1190.425 1152.52 1130.357 1073.761 1003.787 972.4384 923.9928 865.0651 829.7176 777.8688 736.6871 706.1011 662.4109 677.8299 655.1686 646.527 644.6931 649.7826 656.5828 674.3635 702.2741 732.5458 774.6074 802.2967 834.0648 861.4492 889.0199 925.0424 943.0469 955.7788 958.0582 959.1567 937.232 917.8002 894.1975 889.5547 899.8434 888.1281 875.4561 826.6207 780.6338 744.1119 679.9213 643.4692 589.4518 555.3826 533.9587 494.7134 474.1605 435.6042 409.5017 394.1611 369.1837 355.2158 332.9487 318.2999 309.4319 295.7042 285.5974 269.5836 258.3806 255.5646 251.8424 258.8757 256.7664 254.8766 252.1906 233.5773 219.3718 195.1327 177.1115 163.908 144.2224 131.4377 117.4629 112.3398 110.8165 108.0021 109.8586 112.3931 118.1591 125.9139 132.3781 135.5208 138.6844 144.9219 154.1589 165.0996 175.5731 186.4983 194.3347 201.9084 208.3662 218.4353 235.391 254.657 276.0619
-230.75 -182.0029 -102.9486 -9.36145 42.83185 15.08115 -81.37662 -208.9373 -326.4386 -387.9833 -397.5523 -400.9315 -412.1359 -426.2007 -447.4879 -472.8919 -488.9131 -497.9225 -499.0157 -491.5471 -475.7828 -459.5673 -439.9999 -414.0116 -356.38 -253.2065 -125.4038 24.77512 181.0585 324.5724 433.1046 479.0287 490.047 499.9352 538.4091 549.8644 546.1496 544.6195 524.3915 525.6243 528.0146 495.2701 447.0444 421.7687 388.1808 300.1235 262.7752 242.7199 185.3758 82.79953 -88.8829 -242.1334 -449.3834 -617.4247 -745.7784 -860.4763 -908.1894 -892.3287 -826.4449 -790.0659 -785.0206 -789.7314 -759.5652 -708.8325 -658.3568 -553.9322 -480.6638 -370.3585 -286.8727 -219.3432 -122.2354 -66.45749 9.304352 59.80688 89.7648 131.5366 189.4159 409.1588 634.3966 781.0943 913.0057 915.2631 1091.851 1338.303 1343.843 1419.823 1566.351 1614.885 1599.362 1551.656 1489.443 1427.103 1363.374 1313.815 1300.002 1293.916 1275.326 1278.955 1288.928 1313.353 1331.849 1324.248 1328.573 1369.662 1383.962 1399.801 1417.18 1442.388 1470.711 1773.676 1843.951 1761.679 1686.409 1647.386 1611.791 1553.107 1512.292 1468.777 1431.343 1401.182 1332.788 1309.495 1235.159 1180.603 1154.563 1123.922 1098.775 1031.537 962.9902 925.3716 859.7157 820.2518 759.169 711.3719 674.4376 618.8241 616.1236 604.6686 593.934 594.4117 598.5664 606.4258 622.7921 646.6386 674.6747 717.9547 747.1841 786.577 820.9126 852.1193 893.2847 913.4611 929.191 930.1631 930.5738 914.1699 901.0742 885.2715 886.6774 900.5948 891.3748 878.7826 830.3237 785.4093 751.7164 691.0359 656.7209 603.8907 570.2058 549.7228 512.5242 494.62 460.9919 437.3948 421.929 397.8066 384.204 361.7607 346.4917 337.4136 324.511 316.308 304.8252 297.835 297.8501 295.2178 301.6738 298.5878 293.0032 286.4583 266.2443 251.5979 228.0371 211.3596 198.9977 178.3945 164.0638 147.618 140.9406 139.1226 135.0651 136.037 136.7527 140.8167 146.8126 150.6001 151.6863 152.9844 158.1442 166.5964 176.5876 185.0941 192.1721 197.1395 201.6581 205.0573 212.4691 227.256 244.5253 263.5898
-257.5075 -225.3254 -160.6997 -76.90259 -31.02243 -55.99939 -141.4746 -255.9894 -349.5104 -389.3795 -391.0744 -397.0764 -415.6492 -429.2216 -450.4017 -474.211 -493.0048 -508.4255 -506.7277 -487.4732 -462.6474 -448.2697 -438.2112 -424.2518 -386.3735 -304.996 -185.3785 -33.7681 130.0625 290.8791 429.3228 478.723 480.1144 477.2592 495.9305 521.06 524.4668 498.406 466.4311 481.9333 475.6167 445.5839 380.9051 289.3159 257.4252 183.4069 86.11188 26.26459 -27.862 -120.9071 -268.6989 -385.0119 -548.8009 -671.9072 -757.9866 -836.7092 -867.2621 -861.8123 -816.7238 -796.7463 -796.987 -795.1201 -763.9293 -710.1034 -655.2021 -549.5827 -473.5899 -357.2671 -268.6379 -200.333 -104.519 -50.74802 21.23715 67.38889 93.43092 129.2658 222.1405 503.8724 695.4169 739.4306 848.2894 891.8619 1050.641 1288.382 1338.191 1454.983 1640.014 1684.697 1620.833 1565.81 1496.263 1429.543 1380.027 1367.047 1349.559 1323.926 1304.027 1301.446 1329.682 1348.141 1348.535 1363.025 1331.288 1516.375 1415.096 1422.3 1434.977 1445.307 1480.107 1469.307 1556.695 1873.341 1693.174 1645.205 1613.486 1549.455 1495.375 1469.836 1437.07 1407.174 1340.219 1300.446 1230.743 1178.934 1156.015 1123.379 1108.679 1057.586 968.476 929.1678 860.6754 816.7965 751.9394 698.9651 658.7652 597.1382 574.0367 575.9345 565.492 564.1956 570.1956 580.2392 596.3422 617.1876 641.9942 685.3607 715.7699 757.7009 793.5405 825.7593 871.6234 894.6962 912.5313 911.896 908.4041 894.5004 885.9437 875.4878 882.6673 899.113 891.1223 880.0343 832.5775 788.4633 755.8804 697.8916 666.2799 615.1467 581.9956 562.0503 526.3411 509.9636 478.5236 456.6198 441.8728 418.2246 405.3823 383.7587 368.4634 361.3335 351.5884 345.7413 338.2673 334.6654 336.0258 332.8588 337.0129 331.2373 322.8311 314.0526 292.9872 278.8391 257.325 241.9763 229.9509 208.4282 193.1934 174.6449 165.8995 163.6149 158.5273 158.6483 158.2531 161.0016 164.8907 165.3911 164.3489 164.181 168.4951 176.1553 184.7954 191.502 195.4158 197.7476 199.5452 201.1729 207.0992 219.4689 234.7388 251.6107
-280.4902 -263.0021 -212.2461 -143.1024 -104.081 -124.5973 -192.899 -285.4841 -359.4349 -382.3667 -385.8207 -399.6063 -417.9383 -432.1885 -452.071 -477.9994 -504.0541 -515.0062 -489.0175 -444.868 -407.1525 -396.0467 -403.4585 -414.0341 -398.05 -335.9724 -223.9216 -71.03232 87.78271 250.5191 394.0336 444.3648 443.22 442.6895 466.6562 498.5878 516.2788 500.8973 474.7859 482.8704 452.6937 406.2138 316.642 224.2345 184.7571 62.33917 -68.7403 -154.9011 -217.0518 -299.5388 -423.1349 -508.1421 -628.9568 -708.1077 -756.1401 -805.4252 -816.0604 -818.4967 -804.9021 -799.8119 -799.1924 -791.8807 -758.6859 -706.8951 -651.2264 -540.5109 -464.2505 -346.1442 -256.2158 -186.9998 -92.07617 -45.17535 18.29102 61.94504 93.51418 133.8507 245.1951 536.6771 692.1848 746.6539 862.4749 919.7908 1062.638 1263.187 1424.046 1571.452 1690.075 1703.673 1643.253 1574.868 1520.572 1444.145 1392.552 1384.054 1357.208 1344.777 1346.687 1332.728 1373.436 1382.302 1389.867 1385.932 1400.434 1472.489 1463.72 1454.89 1455.876 1446.198 1469.141 1468.023 1506.563 1684.281 1701.881 1676.698 1653.979 1590.472 1527.059 1486.569 1450.022 1448.717 1353.104 1294.556 1223.074 1182.16 1161.42 1125.339 1113.672 1069.579 1019.986 930.5286 864.1136 820.6486 752.3923 696.8199 653.3475 587.3217 554.6685 548.8087 551.2852 548.87 552.4323 562.4852 579.1715 601.1765 625.2945 668.5584 698.8644 740.8738 777.6432 810.9602 858.0255 881.9579 901.1307 900.1048 893.9203 879.585 873.2335 865.0646 873.8287 891.4999 886.5613 878.5982 832.6694 789.5757 757.2482 701.8016 673.0081 624.333 591.2239 572.2009 537.2418 521.1628 489.8014 467.9222 453.6414 431.2661 420.2609 400.6425 386.634 381.8934 376.2505 373.396 368.5546 367.1404 368.6069 363.8153 364.3356 354.5289 344.0342 334.8641 314.1162 301.4797 281.9426 267.4154 255.0288 232.2118 216.5426 197.0826 186.9381 183.9283 178.5812 178.6364 176.6125 177.8362 179.7058 177.2616 175.0588 173.9323 177.2871 183.8933 190.6763 195.4746 196.9535 197.1787 197.4786 198.6239 203.7638 214.1588 227.5989 242.4777
-351.9885 -337.1274 -293.2794 -231.719 -192.5009 -198.5696 -243.1177 -308.7752 -360.033 -373.7368 -385.0379 -404.2766 -422.0362 -435.1915 -451.093 -479.4694 -498.254 -478.5546 -420.8558 -348.892 -298.4084 -291.149 -322.8853 -363.8036 -369.9357 -322.8768 -211.2091 -64.98227 83.7793 242.1949 344.4122 349.2213 358.3327 359.8896 391.116 469.8392 499.3163 497.5346 488.9534 470.8143 416.8387 343.3961 215.2848 129.5835 52.09348 -101.4828 -223.8789 -341.7471 -406.7977 -479.4835 -589.0734 -650.4122 -732.9631 -771.0785 -786.1165 -812.0103 -813.3557 -816.8853 -813.3463 -806.3437 -788.5009 -774.0519 -731.3618 -680.9028 -625.3073 -508.5135 -432.9002 -316.0199 -224.6335 -153.3046 -66.00366 -30.86115 22.51373 67.82503 120.6741 172.2777 275.0628 564.2776 738.0892 801.196 949.7812 1082.675 1175.8 1275.667 1477.352 1671.985 1716.897 1713.764 1617.594 1531.303 1520.374 1495.973 1400.036 1384.95 1425.89 1469.235 1521.116 1429.592 1408.346 1420.215 1419.374 1420.481 1456.945 1531.856 1504.157 1496.002 1483.769 1462.661 1495.48 1462.124 1567.089 1694.449 1684.295 1647.946 1622.528 1567.103 1518.166 1484.743 1457.73 1461.985 1368.728 1300.192 1221.252 1184.022 1158.824 1136.188 1134.217 1085.109 1036.074 958.4633 861.7953 822.3927 751.215 693.2646 648.6531 579.3124 542.4013 511.4459 535.5704 532.6848 533.051 541.6898 558.2286 580.8197 605.2196 647.6222 676.8905 719.0624 755.9336 789.1436 836.6029 860.3505 880.6251 880.984 875.4926 861.8768 855.6763 847.1267 853.4714 872.6401 871.5434 867.4707 828.2327 787.7242 756.0164 705.6254 680.1532 635.9584 605.5214 586.9703 552.5349 536.027 505.1868 483.7505 470.9177 452.1528 444.7255 428.8057 417.2312 413.8589 412.9509 414.2693 410.7817 410.3423 410.6821 403.9789 400.969 389.0173 378.65 370.2786 351.6278 341.0455 322.3959 307.4357 294.4388 270.3622 254.3446 233.7904 222.491 218.651 212.3795 212.5388 207.734 205.6622 204.9006 199.1598 195.6677 191.8365 192.5017 196.8304 200.2465 201.5299 199.3213 197.1647 195.4971 195.4918 198.1707 204.6354 214.5438 225.4806
-367.7952 -360.5886 -334.7041 -289.2582 -257.7289 -259.0942 -289.1807 -332.4357 -360.0707 -372.688 -390.09 -407.7831 -425.3009 -437.0938 -455.1663 -479.3185 -471.4631 -413.1255 -324.5999 -231.6558 -172.0161 -174.4972 -230.0295 -294.9127 -319.3075 -275.4937 -155.8402 -4.925812 121.589 235.2062 310.0472 298.5521 300.067 318.7216 362.1555 439.6168 477.2124 480.8507 467.7084 434.7102 375.1007 291.7788 169.3145 51.62915 -92.60678 -186.796 -274.1519 -435.2223 -501.2953 -588.8771 -692.1938 -734.3651 -790.5324 -807.79 -807.9891 -829.3656 -837.0764 -837.4056 -824.0538 -810.6442 -782.8522 -762.2754 -713.5431 -659.6346 -604.7856 -490.8114 -415.615 -299.9057 -204.4267 -132.0853 -57.82547 -33.1767 10.77148 63.31346 155.3724 226.7672 307.3572 579.5176 811.0884 887.3676 1009.541 1148.611 1271.969 1353.464 1611.755 1799.05 1830.443 1723.864 1657.642 1599.221 1587.956 1509.625 1517.756 1661.43 1493.85 1508.155 1523.439 1519.08 1474.745 1455.909 1470.302 1454.94 1481.228 1529.069 1545.328 1525.703 1532.853 1500.603 1502.657 1507.834 1721.4 1747.393 1708.679 1660.665 1621.087 1585.24 1542.787 1520.576 1477.235 1455.419 1398.358 1292.055 1227.705 1190.747 1194.709 1141.681 1137.37 1094.348 1044.101 1003.354 892.2078 823.5591 758.8373 702.4586 656.5701 585.8696 544.4675 499.5815 525.259 533.6707 532.5062 540.6554 556.7511 578.97 602.7539 643.8188 671.8179 713.3253 749.7223 781.3177 826.8242 849.4344 869.9708 871.2883 866.395 852.5493 845.3538 835.6677 838.1992 854.2605 853.0836 852.7103 822.1347 786.392 755.7771 707.9061 684.2261 642.4047 614.9575 596.6307 561.4717 543.9226 512.9595 492.0693 481.2521 465.7255 461.2671 448.6844 440.2609 438.4562 439.0826 443.5764 441.7502 439.141 436.5215 426.8834 421.4717 410.2064 400.3312 391.5327 373.8177 363.8788 345.4056 329.6863 315.9851 291.3967 275.3643 255.1934 244.9572 242.1427 235.7343 235.7306 229.3833 224.9908 222.4282 215.0801 210.9202 204.8861 203.1378 204.9443 205.2855 204.1663 200.5027 198.3412 196.771 196.8406 198.1427 202.0045 209.2513 217.0544
-390.1495 -383.9027 -372.2288 -344.3531 -320.8141 -321.6485 -339.9269 -362.2851 -371.8516 -380.995 -398.1737 -414.3221 -431.2941 -441.8684 -461.6463 -472.3625 -428.1641 -333.4076 -219.3891 -110.8486 -50.24643 -69.5582 -149.1751 -235.1685 -268.9285 -221.1067 -96.78116 65.20685 200.1761 261.558 286.6042 308.8311 318.8359 332.4213 367.3322 398.7661 423.6838 421.6917 398.9004 351.5675 275.7552 183.1123 85.43176 -42.02118 -187.9205 -286.8202 -380.3063 -499.6558 -585.6605 -673.9625 -762.1225 -789.2162 -833.1954 -849.802 -851.2892 -866.5233 -867.4185 -853.0193 -828.8221 -804.9095 -761.5961 -732.0057 -674.4438 -615.5026 -560.3477 -452.4323 -379.1669 -267.6136 -171.832 -100.5132 -36.89661 -20.14322 16.73677 86.44147 219.7034 305.3956 366.2487 609.3828 866.214 971.414 1079.98 1289.648 1719.063 1973.359 1998.113 1945.583 1882.359 1738.004 1706.963 1682.627 1659.79 1792.252 1763.82 1679.605 1632.201 1527.654 1537.803 1536.64 1510.164 1486.616 1522.852 1612.457 1614.6 1589.289 1555.712 1572.41 1563.24 1530.058 1581.251 1602.507 1703.521 1737.6 1727.71 1697.368 1631.875 1591.001 1546.211 1497.56 1455.595 1420.348 1380.932 1281.49 1241.602 1210.232 1185.232 1156.056 1110.647 1083.501 1040.446 1012.354 982.7989 891.3718 770.3209 721.7375 673.2361 602.1099 559.6251 509.3429 508.3574 543.4456 540.5679 547.0389 561.3257 582.5352 605.3918 644.1007 670.7995 710.1089 744.0894 772.9385 815.3207 836.6468 857.8708 861.5293 857.9845 844.6862 836.8739 826.136 824.8707 835.5333 832.7476 833.6707 808.4541 782.2102 758.2528 712.7098 689.1755 651.7523 626.5609 609.3481 576.1268 558.9662 530.496 512.0924 502.9559 490.3369 488.4183 479.9298 475.6035 476.1511 476.7416 481.5599 480.3811 475.6212 471.0999 461.5645 456.63 446.7939 437.1189 427.9156 410.0819 399.701 381.1277 365.0271 350.4215 324.8358 309.0161 289.6809 280.3197 278.0504 270.4205 268.9741 259.8767 252.7255 247.7104 237.9397 232.7485 223.2307 217.49 215.4849 211.8123 208.2933 202.7666 199.7325 197.3784 196.4807 194.597 193.541 196.0687 198.9939
-410.6772 -401.308 -395.6559 -385.6771 -375.3513 -374.251 -378.159 -383.7155 -386.1725 -394.168 -410.0208 -424.7018 -437.2337 -443.9578 -462.6692 -463.348 -393.3323 -266.8582 -135.9587 -23.52628 30.3797 -4.5224 -99.43915 -196.7912 -230.624 -185.4073 -68.43723 76.77945 206.5114 269.0245 271.8965 254.1907 246.7173 258.3207 286.8427 322.7917 334.2064 324.3579 292.1172 232.0433 147.3648 49.15259 -51.71539 -152.881 -264.1844 -387.0121 -483.5192 -560.4091 -633.4643 -714.1376 -796.5162 -821.4873 -864.7668 -884.4628 -888.7996 -892.4269 -882.3483 -859.3589 -826.3367 -793.7956 -738.3519 -702.2324 -637.744 -576.6343 -521.6 -418.4321 -348.7659 -242.5948 -145.7743 -81.6586 -29.41818 -11.564 31.65105 139.4358 303.1714 383.6843 450.99 651.9051 883.9254 1194.607 1656.246 2290.637 2272.424 2145.236 2047.79 1955.895 1852.88 1798.952 1772.702 1772.027 1838.128 1747.983 1708.297 1657.457 1614.823 1558.243 1560.989 1558.962 1539.12 1531.388 1535.143 1569.249 1491.618 1654.427 1586.995 1713.438 1637.629 1717.301 1748.19 1754.853 1751.999 1721.567 1699.713 1675.796 1657.504 1600.019 1519.732 1461.979 1423.178 1397.762 1358.384 1311.135 1250.622 1218.157 1182.386 1140.736 1119.637 1093.713 1029.241 1014.475 1010.556 894.9117 801.9683 739.408 699.5136 631.2712 589.8412 536.423 511.2596 559.7458 563.0724 567.0675 580.4025 600.1797 621.4451 657.523 682.8297 718.6418 749.1351 775.0459 813.6918 833.699 855.1796 860.7432 858.9459 846.9689 838.506 825.0009 819.5984 824.6442 817.6976 818.4545 797.587 778.7 761.3489 719.3348 695.8086 658.6835 634.473 618.4415 588.0413 573.4486 548.7333 533.3695 525.9829 514.9706 515.2472 510.7191 509.686 512.489 513.6833 516.0394 512.7661 507.4845 502.4955 494.3885 490.9128 481.1423 470.5835 460.2125 440.4917 428.5582 408.9205 392.3224 377.6581 352.4218 338.29 320.1678 310.8477 308.094 298.6602 295.8041 284.3491 274.9968 267.8627 255.5548 249.0807 236.4476 226.8252 221.3328 214.8773 210.6785 205.1342 202.548 199.5791 197.5259 192.6506 186.6913 184.6301 183.4098
-429.0789 -417.0283 -408.9657 -405.5751 -403.0641 -400.984 -398.9703 -398.134 -400.8397 -409.6159 -424.8301 -436.1059 -438.6289 -435.9594 -446.7141 -438.4664 -357.9316 -228.2012 -89.01321 29.01331 80.64691 51.51822 -29.77319 -117.3078 -160.3145 -137.0193 -42.62936 74.80142 152.1085 208.6088 252.7123 215.4904 172.0329 180.9968 202.034 225.5817 219.7338 198.6686 159.8593 92.90472 2.005035 -90.12128 -192.724 -288.2914 -369.0084 -458.4587 -552.978 -621.8979 -663.8303 -739.5093 -819.5963 -850.2382 -890.2877 -905.5096 -907.8254 -904.227 -890.1508 -860.3281 -821.3325 -782.8408 -718.1428 -676.649 -606.8405 -544.8973 -491.2543 -392.0544 -325.5958 -225.146 -127.3841 -70.67227 -27.57184 0.499176 65.9203 174.5712 336.7374 480.6732 603.886 839.1993 1217.295 1534.576 1744.85 2112.032 2418.339 2432.912 2136.878 1965.246 1903.693 1849.054 1887.118 1735.599 1755.34 1753.234 1730.21 1670.248 1655.068 1590.239 1569.352 1581.356 1591.578 1562.129 1571.504 1599.447 1643.31 1616.405 1838.338 1806.681 1801.875 1819.982 1796.633 1779.106 1754.483 1712.093 1674.308 1643.941 1612.823 1538.505 1490.34 1443.05 1408.427 1384.971 1356.87 1315.36 1249.031 1213.87 1180.929 1160.831 1143.386 1082.198 1039.252 1029.223 1004.316 955.0289 826.2105 775.9283 737.2961 670.5729 625.6317 571.963 546.9534 587.8507 589.296 591.8184 602.6919 620.9744 641.5013 675.1447 698.8287 731.6502 759.2792 782.1584 817.3171 836.4858 857.4958 864.3177 864.7032 854.4398 845.5893 829.3779 818.8114 817.1579 805.8716 806.096 787.8609 773.0723 761.7046 723.3611 700.9894 663.4222 639.5789 624.4354 596.8257 586.0923 565.5332 553.0804 547.9647 539.5093 541.28 538.6431 539.7383 543.8871 545.2185 545.9476 541.1732 535.4186 530.522 523.5315 521.1307 511.488 500.0876 488.5233 466.8611 453.0052 431.8636 414.7733 400.4969 376.7841 364.7395 347.4893 337.5297 333.3204 321.6869 317.2714 303.7081 292.5386 284.084 269.6196 261.2451 245.5535 232.6169 224.1826 215.8101 211.9703 207.8054 206.6533 203.2344 199.6602 191.516 181.2124 175.2566 170.5077
-457.1851 -446.015 -436.8177 -429.3638 -425.8727 -425.6622 -425.7287 -425.8635 -430.5726 -441.5211 -452.5065 -446.3913 -427.9909 -413.3242 -408.3235 -377.5097 -285.9537 -171.2092 -53.4425 74.00128 155.3725 162.0692 123.8959 58.9834 7.674438 0.01483154 47.33078 120.027 154.86 186.312 248.2481 235.0795 191.3486 200.261 174.4342 122.0617 87.9227 50.57883 -0.2478638 -74.36111 -171.0546 -259.7446 -352.8854 -430.2226 -495.4558 -575.5518 -645.5272 -699.8061 -734.5858 -787.1172 -851.223 -880.9183 -912.4404 -917.9056 -913.5995 -896.354 -874.0733 -832.8204 -785.2644 -740.0272 -663.9012 -615.8902 -541.7852 -481.5345 -430.9196 -342.0254 -281.6432 -197.5813 -129.5038 -86.80698 -17.61032 28.99028 111.6033 224.7768 409.9655 761.8343 957.6112 1085.056 1080.961 1250.559 1670.087 2209.024 2832.914 2393.517 2136.137 2086.567 1971.42 1929.451 1777.561 1717.976 1771.824 1756.433 1749.091 1729.373 1715.58 1686.668 1664.243 1653.78 1668.193 1625.5 1617.015 1588.227 1598.727 1888.752 1868.111 1846.621 1834.411 1832.147 1814.486 1791.687 1761.84 1714.269 1667.705 1603.22 1571.482 1516.295 1477.16 1427.37 1394.723 1375.928 1352.472 1313.994 1233.771 1217.914 1192.512 1180.166 1172.41 1119.626 1068.263 1049.232 1015.628 1000.305 957.4305 829.924 781.7383 728.9117 687.8065 639.0168 647.4033 647.3394 639.7065 641.1497 648.3494 663.4299 682.2086 710.4264 730.3215 757.6697 780.9733 799.7097 828.745 845.6075 864.0336 870.8309 872.2562 863.1051 854.4744 836.7346 822.7667 815.7854 799.9989 799.0252 783.8742 773.5481 765.9686 731.5734 709.7247 673.5775 651.5482 638.0088 613.8176 605.87 589.6039 581.4979 580.1906 576.9216 581.7377 581.8505 584.2207 588.5603 589.6245 589.3741 583.6013 577.5175 573.8158 568.214 566.0303 556.4969 544.9038 532.6587 509.3376 494.2574 471.2095 453.25 439.3428 416.6737 406.0059 388.3583 376.5615 369.8859 354.7111 347.8842 331.4452 318.0438 307.983 290.7764 280.1517 260.4634 243.0118 230.9381 219.9276 215.1761 210.767 209.4363 203.786 197.286 184.3636 168.6019 158.1434 148.4227
-471.285 -460.4633 -451.0307 -444.5683 -441.2483 -440.0411 -441.7776 -443.5269 -449.2985 -464.0884 -469.2115 -443.3753 -411.2104 -385.6749 -350.4787 -289.289 -191.4635 -82.40628 -1.695038 113.3941 240.6378 308.1765 330.4629 297.7885 255.2138 218.0814 189.7012 206.2567 206.6803 216.1855 267.9182 232.1758 172.0544 164.4364 125.6426 46.12976 -9.499786 -63.00656 -124.343 -201.0766 -299.0347 -381.3911 -452.0009 -502.0804 -554.8115 -627.0721 -685.891 -735.6825 -769.2216 -816.1284 -869.4528 -893.0402 -917.8402 -919.1024 -910.0402 -884.4053 -858.0605 -811.201 -759.6289 -711.5493 -630.9059 -580.8231 -504.6768 -445.3729 -396.5714 -313.1589 -258.3685 -188.541 -140.8188 -89.78391 -5.782166 58.45398 191.5119 334.311 442.0137 692.3718 876.3964 951.9589 990.5269 1345.718 1945.364 2052.855 2231.366 2272.744 2116.865 2060.588 2083.134 1997.833 1989.953 1753.486 1862.555 1858.587 1790.321 1771.714 1779.212 1740.604 1735.867 1712.14 1679.448 1657.795 1682.033 1649.57 1610.801 1861.385 1900.39 1886.32 1870.547 1848.91 1816.738 1797.425 1763.352 1725.524 1672.46 1614.741 1579.677 1531.056 1466.766 1422.346 1393.486 1380.231 1343.409 1314.899 1275.528 1257.716 1363.134 1244.052 1193.675 1144.504 1092.028 1069.836 1036.511 1017.976 975.4357 943.4356 836.2507 769.2382 739.322 702.4174 687.9554 678.3777 671.356 673.5485 680.0049 693.1559 709.9767 734.8937 752.7261 776.1426 796.7172 813.7759 839.5197 855.321 872.6545 879.5471 880.8093 871.3464 862.9616 845.0192 830.1788 819.2412 797.8654 794.4653 781.9006 774.2112 769.2621 735.5118 714.1085 679.4797 658.8864 646.3701 623.7424 616.4928 601.5981 596.7478 599.8823 600.8337 608.7045 611.3445 613.6121 616.4657 616.0729 614.816 608.6871 602.7822 599.6581 594.0966 591.1003 581.4799 570.4401 558.6356 535.2196 520.0812 496.3625 478.006 464.5598 442.7792 432.9083 414.9255 401.6846 392.5287 374.2063 365.2185 346.7898 332.3417 321.6486 302.9821 291.278 269.4363 249.1067 234.9832 223.48 219.1134 214.6444 213.0123 205.7179 196.9929 181.2383 162.3596 149.4207 136.8969
-493.733 -481.9729 -472.2107 -466.3098 -462.812 -462.6263 -464.4593 -464.7957 -469.2405 -481.7992 -477.5338 -445.0644 -409.3626 -360.4317 -280.8869 -185.1204 -89.28116 9.6521 80.11374 190.1266 350.1126 488.7292 578.6422 589.239 578.8394 528.3296 445.0296 398.218 348.4301 320.2093 303.0735 205.7433 121.783 90.13281 84.58908 28.74481 -48.37936 -120.9803 -206.7886 -299.4525 -403.4434 -481.2388 -535.8735 -570.3727 -619.0171 -683.8391 -738.26 -786.403 -814.4266 -850.9308 -888.17 -901.434 -911.3105 -902.8509 -886.0949 -848.804 -817.2256 -761.5425 -704.5901 -653.3839 -567.4663 -515.4311 -437.7337 -380.4736 -335.6354 -261.9946 -219.8956 -162.6274 -112.9767 -50.30237 263.2263 424.5421 452.7136 452.8827 441.8644 499.3878 615.8266 778.9222 1146.101 1588.468 2170.171 2217.466 2356.31 2134.865 1764.897 1755.781 2222.804 2047.603 2031.079 1974.661 1933.343 1893.089 1841.167 1821.87 1827.265 1806.612 1792.621 1803.036 1873.499 1721.703 1688.194 1706.206 1700.307 1968.686 1940.64 1915.531 1895.774 1875.875 1834.887 1804.073 1777.947 1745.789 1704.544 1644.317 1592.279 1539.61 1488.386 1453.214 1414.38 1375.633 1382.242 1337.723 1431.153 1342.916 1320.484 1271.907 1224.399 1164.153 1123.805 1111.36 1074.464 1053.454 1030.723 996.8203 909.9389 834.0291 781.8773 754.1494 736.7311 725.8502 718.2386 721.0001 731.2233 744.2996 756.8408 775.6251 789.5106 806.5588 822.2887 836.6486 857.678 871.4963 885.9095 891.106 891.7809 881.988 873.632 856.2975 841.5657 828.7421 804.3713 798.2373 784.6809 779.2681 774.7965 742.4365 722.8395 690.1943 671.2788 659.4395 637.2258 629.8926 616.1772 614.1455 621.3115 626.5941 636.775 640.9207 642.7692 644.3231 643.6605 642.9136 638.3354 633.2383 630.0468 624.2864 620.7166 611.1434 600.4998 589.4733 566.9193 552.4907 528.6276 510.0284 497.1057 476.283 466.7235 447.9756 432.9342 421.296 399.7175 388.494 367.6698 351.7373 340.225 319.2723 305.9631 281.6129 259.3975 244.1659 231.548 225.8 218.2496 213.613 202.9128 191.2017 172.4153 150.2909 134.4609 118.8475
-509.0229 -495.5598 -484.9955 -479.3128 -476.4745 -475.8752 -475.3608 -471.7999 -475.7237 -485.9991 -482.9821 -458.1452 -416.1646 -341.3784 -235.9521 -112.7238 -9.933472 70.05612 140.2009 253.0018 426.4277 624.6959 803.5962 876.9996 882.2318 840.7913 747.4061 646.145 535.8663 429.2053 315.4597 177.2186 82.5694 55.31833 80.36661 93.9978 1.882751 -145.2635 -246.2963 -349.1601 -451.9741 -522.634 -574.8642 -608.4223 -654.178 -720.1175 -771.8334 -814.4485 -838.1385 -866.2271 -890.9459 -896.5747 -895.2755 -879.0057 -858.4287 -814.5222 -779.2021 -717.8553 -658.377 -606.1096 -517.4369 -464.408 -385.9104 -329.9725 -288.5066 -223.4442 -189.1653 -140.4258 -76.8782 254.0144 865.2963 693.0123 535.1249 520.8443 542.4341 624.9045 682.1005 732.7101 1006.665 1363.696 2118.924 1952.175 2084.547 2204.009 2031.875 1958.865 1969.857 1800.846 2056.542 2005.504 1962.224 1923.093 1887.81 1855.135 1873.774 1885.481 1833.737 1845.094 1877.36 1930.075 1793.491 1730.9 1768.655 1978.613 1988.078 1974.896 1955.479 1928.698 1890.177 1854.063 1798.281 1763.724 1734.311 1698.892 1648.495 1566.644 1513.237 1482.551 1460.743 1453.718 1419.101 1429.721 1442.261 1396.594 1348.038 1290.86 1243.308 1195.146 1174.016 1151.921 1110.009 1089.467 1070.548 1028.509 945.5169 867.0641 813.2247 788.2601 777.05 765.3676 755.2707 756.8031 768.5604 786.8906 800.7084 812.3892 820.7186 833.2712 847.378 858.9377 876.6915 888.3295 899.8374 903.5853 904.1791 894.8737 886.8037 869.7714 854.9528 841.5235 813.9775 804.5142 788.168 780.3004 775.8113 746.0669 729.8615 698.7024 680.3918 668.7427 646.1268 638.3589 624.9102 624.2234 632.85 639.7756 649.9846 652.934 653.2998 653.9413 654.1132 654.4977 651.2202 646.7748 643.8478 638.3768 635.1494 625.9652 615.7881 605.9578 585.2063 571.6005 548.3301 530.0477 517.9857 498.4109 489.2382 470.0305 453.6807 440.5052 417.0582 404.5573 382.3619 365.3328 352.9801 330.4462 316.177 290.4028 268.1158 253.9053 240.7401 232.4452 221.2415 212.8815 198.5864 184.9482 164.7406 141.3096 124.2571 106.6492
-520.244 -506.0681 -494.8712 -489.2756 -485.8312 -483.6397 -480.2542 -476.3209 -481.5202 -488.6667 -491.7497 -477.7478 -430.7805 -343.601 -224.6013 -90.75696 27.38348 99.85269 159.542 263.3763 438.6262 664.2805 917.0735 1093.58 1129.451 1096.811 991.6389 855.0515 707.1554 533.9279 357.1014 202.5041 92.19705 49.60138 52.716 76.64709 -14.49545 -188.4345 -276.692 -371.1433 -467.3876 -530.6909 -585.0732 -623.2127 -673.8684 -744.8679 -794.1602 -831.2362 -851.2079 -872.3542 -887.4044 -887.251 -877.9003 -856.7524 -832.3328 -783.6478 -746.2482 -682.0829 -620.9918 -568.5258 -478.7764 -425.0146 -346.5486 -292.5007 -253.3941 -195.3462 -160.4752 -98.40005 5.731842 661.6193 961.5333 704.1356 613.9127 609.5992 662.8802 805.0176 887.9987 820.361 1081.982 1465.194 2042.322 2114.204 2067.276 2084.303 2058.354 2206.561 2159.953 2407.073 2050.504 2019.426 1993.061 1956.769 1919.957 1905.199 1895.847 1886.114 1877.034 1867.381 1886.383 1919.672 1965.255 1836.413 1993.839 2001.346 1998.254 1978.442 1960.514 1938.001 1901.706 1863.695 1822.868 1801.914 1786.27 1753.15 1721.657 1597.292 1584.703 1561.439 1539.55 1501.11 1485.618 1453.855 1442.295 1400.543 1374.45 1317.091 1272.397 1221.62 1209.73 1191.811 1154.707 1131.567 1107.405 1065.847 993.7404 901.1943 840.815 824.9742 835.5178 818.5837 802.0835 796.2536 799.3337 817.322 837.3053 850.1272 851.8084 856.3619 867.6935 878.9523 895.0835 904.7175 913.5646 916.0789 916.542 908.1957 901.4219 885.1973 870.1576 854.5977 825.5438 811.9313 789.1939 776.7554 772.2654 745.7644 733.6036 704.5551 686.5194 675.2059 652.8447 645.1357 631.778 631.5145 640.4482 646.9501 655.3558 655.8616 654.873 655.132 655.7559 656.7261 654.1008 650.6464 648.8583 644.4584 642.2314 633.5945 623.7955 614.65 595.0983 581.8016 559.4541 542.0155 531.2189 513.1066 504.4529 485.0712 468.0314 453.7582 429.0753 415.6707 392.7104 375.1097 362.2106 338.5183 323.6129 297.5164 276.2777 263.5398 249.4349 238.333 223.027 210.2344 192.8085 178.277 158.171 134.8788 117.65 98.94592
-538.6862 -523.5541 -511.1137 -504.2839 -499.1642 -433.0832 -464.6441 -482.7707 -487.3368 -489.5351 -493.4115 -488.8798 -443.0167 -355.8987 -231.7251 -92.69196 36.88611 119.0534 174.6311 274.8551 443.7539 676.9924 930.6812 1134.258 1260.306 1294.671 1208.38 1057.279 876.655 673.0768 453.2529 257.8962 117.183 33.9519 -1.207611 -20.66485 -76.85641 -187.4209 -284.5611 -375.4249 -472.8104 -543.1978 -606.559 -650.377 -708.2697 -777.1543 -820.7586 -851.878 -865.1882 -875.1676 -874.6895 -865.5782 -844.2579 -816.0111 -786.7468 -730.6215 -690.0594 -621.0043 -557.4011 -504.0035 -413.5206 -360.4653 -284.9193 -235.9373 -198.8886 -145.0814 -109.0198 -61.20087 202.804 1043.849 1068.666 751.0638 678.485 684.6373 911.1612 997.8144 1043.621 1174.354 1309.701 1650.604 2192.178 1942.151 1751.675 2187.837 2187.992 2461.404 2327.535 2106.994 2087.344 2023.469 1994.573 1963.136 1957.648 1933.234 1928.131 1912.711 1869.06 1914.978 1930.294 1979.537 2109.17 2310.403 2043.505 2030.829 2004.282 1984.195 1962.465 1944.474 1915.341 1884.273 1859.042 1844.239 1836.176 1812.651 1795.474 1754.403 1663.808 1631.378 1597.372 1602.317 1613.537 1564.199 1478.244 1429.146 1382.078 1348.934 1307.534 1283.502 1255.548 1250.649 1217.71 1193.999 1170.76 1117.045 1050.21 985.2758 909.2197 898.4589 931.4094 931.7376 908.4964 874.4672 865.1898 873.6039 890.7227 905.0159 906.5837 901.0674 901.8298 912.9415 925.9457 932.6564 937.623 938.106 938.6227 931.7248 926.8726 910.3082 893.8432 876.0359 841.7653 822.6461 793.9625 777.4477 772.9945 749.068 740.4534 713.9645 695.8176 684.2458 661.4913 654.1954 640.6187 639.4611 647.4318 651.577 657.9198 655.9684 653.5997 653.1899 652.6317 653.2643 650.9053 648.5254 648.2444 645.3925 644.2743 637.0552 628.3988 619.8621 602.6372 590.5992 570.7238 555.6616 546.8485 530.6919 522.9996 504.0336 486.7122 472.0337 446.7185 432.6489 409.14 390.6527 376.6866 350.833 334.7214 307.8358 287.1434 274.621 258.2908 243.3561 222.0417 203.5988 182.5632 167.235 146.4692 122.0413 104.1055 84
-549.7846 -534.3977 -521.6605 -514.0549 -507.6361 -434.3723 -467.174 -482.807 -474.7958 -461.9442 -458.1064 -465.2022 -443.2474 -377.7966 -261.0543 -117.9763 11.05847 110.3075 180.6122 283.8804 447.3365 680.6053 919.9258 1102.692 1266.148 1355.534 1324.167 1191.47 1005.478 789.0012 532.5045 289.1154 106.5779 -8.442673 -72.58829 -93.91881 -115.5677 -199.2681 -298.5034 -377.6636 -475.4927 -552.6785 -622.0645 -668.3361 -725.3011 -790.3698 -831.0915 -857.7576 -866.5912 -869.7756 -860.665 -847.2778 -819.8539 -788.0291 -756.4077 -697.0254 -655.5673 -584.7011 -519.6757 -467.2867 -380.1263 -334.3452 -263.8478 -210.4787 -171.8192 -118.567 -84.69348 -31.48987 793.6812 1352.636 1198.956 891.7728 837.2711 735.8805 1028.591 1364.664 1203.778 1427.989 1536.762 1692.796 2125.001 2082.576 2005.311 2322.741 2252.752 2365.719 2311.838 2266.299 2105.993 2051.457 2019.313 1991.34 1982.776 1961.963 1957.734 1955.246 1978.605 1938.173 2016.965 2224.469 2496.831 2110.648 2095.825 2071.18 2089.66 1999.219 1990.518 1956.849 1931.802 1910.421 1892.075 1883.104 1877.376 1871.85 1866.606 1837.341 1758.999 1721.584 1782.112 1715.373 1655.45 1614.282 1565.092 1518.227 1443.267 1405.903 1355.939 1310.823 1266.684 1279.805 1258.507 1260.278 1222.449 1193.294 1130.276 1090.804 1062.607 1000.169 1019.37 1029.466 996.7968 970.8458 928.8362 924.4608 930.4622 936.7566 940.1204 934.1649 928.2842 935.3504 947.3813 953.7657 956.7407 957.0892 958.3856 951.5425 948.1723 932.2581 912.9697 891.5262 852.6888 829.0574 797.001 779.0841 774.7338 752.8439 746.7533 720.9449 701.8079 688.5875 664.917 658.5723 645.1921 643.478 650.1954 652.0132 656.5706 653.563 650.7842 649.5392 648.0419 648.358 645.9875 644.4994 645.4286 643.85 643.3291 636.7874 628.3615 619.631 603.6444 592.5674 574.838 562.0542 555.0901 540.5707 533.7142 515.0768 497.5627 482.9487 457.676 443.4186 419.687 400.7931 386.0963 358.6381 341.6453 314.4597 294.5125 282.2385 264.3466 245.9185 219.7721 197.8766 175.041 159.929 139.6261 115.0341 96.99292 76.72461
-566.7225 -550.2841 -536.7463 -528.7246 -519.7671 -433.9875 -465.2706 -477.5465 -451.0739 -406.6385 -388.9786 -397.1764 -405.7909 -373.3969 -265.9261 -117.9445 15.6261 123.8726 210.1641 330.1723 508.3122 734.4552 970.4067 1149.633 1287.537 1343.386 1316.753 1232.486 1072.305 846.9374 571.7599 303.5508 87.10005 -61.37875 -148.4977 -181.4916 -197.172 -251.4409 -322.7765 -394.6523 -496.5011 -580.8506 -650.3861 -693.8986 -748.3347 -807.1581 -840.814 -859.7496 -861.7191 -854.8112 -832.814 -812.6442 -775.2629 -737.6175 -702.682 -638.5912 -595.5468 -522.1055 -457.3162 -413.1859 -329.0611 -276.2327 -202.7614 -158.3548 -124.1388 -73.07611 -23.21289 221.3311 1182.062 1429.219 1201.761 983.3065 1047.237 1085.099 1205.412 1341.042 1664.515 1574.955 1658.812 1636.111 2075.754 2625.526 2400.467 2346.948 2151.05 2315.466 2335.452 2341.896 2500.95 2067.365 2009.942 1989.158 2008.548 2016.121 1991.627 2001.674 2032.873 2105.688 2248.614 2293.984 2433.994 2081.009 2090.426 2076.712 2070.845 2050.788 2012.616 1984.797 1949.226 1933.365 1923.424 1918.458 1914.223 1912.732 1901.284 1884.599 1836.845 1800.863 1803.467 1776.68 1732.036 1679.644 1631.372 1586.659 1549.648 1512.736 1444.006 1369.816 1343.701 1301.717 1291.75 1326.329 1313.762 1272.579 1225.842 1166.33 1126.354 1081.171 1071.034 1125.706 1115.133 1071.756 1032.926 1000.912 990.8621 983.6888 978.2761 971.8713 967.6036 969.7024 979.7093 986.3337 985.9838 986.5831 988.5096 982.9036 980.0222 961.826 938.4916 915.062 873.4462 847.3032 814.4391 795.7537 790.2107 767.6516 761.4047 733.787 711.7474 695.3481 669.1827 661.7911 647.583 644.6583 649.542 648.7745 651.4377 647.2595 644.6913 643.7794 641.9338 642.291 640.2012 639.1793 640.6432 640.1343 640.2712 633.8549 625.6279 617.6072 603.8151 594.8964 580.5929 570.2346 565.1501 552.5509 546.4001 528.5299 511.4409 497.058 472.252 457.8203 433.0024 413.011 397.1152 367.6091 349.4564 321.5355 301.9386 289.1779 268.9451 247.1423 216.8229 191.7122 166.3795 150.3507 129.2543 103.325 84.47339 63.49731
-578.7672 -561.6866 -547.7737 -539.5153 -527.8029 -428.5706 -458.6754 -453.5898 -405.2513 -344.0814 -311.1621 -307.1938 -326.6501 -326.7961 -238.3334 -96.897 24.41956 139.3016 245.7427 381.2098 580.9441 803.3829 1015.548 1158.698 1248.941 1258.011 1199.159 1137.885 1014.777 807.7174 538.1465 274.6652 51.62863 -110.121 -212.0627 -253.0862 -265.8413 -301.1141 -349.1436 -418.2331 -521.4737 -605.9996 -674.355 -715.3456 -764.3909 -814.4158 -840.6058 -852.2162 -848.8088 -834.5523 -803.4888 -778.5995 -733.9825 -692.0151 -654.8708 -588.4789 -538.4871 -463.958 -416.2723 -376.8022 -288.4426 -235.8318 -167.8797 -121.1661 -91.01416 -50.48384 42.77762 699.9339 1044.791 1115.4 1303.273 1304.744 1274.032 1324.863 1535.771 1724.417 1962.647 1883.259 1784.231 1815.199 2035.434 2459.166 2696.888 2554.525 2464.189 2339.667 2399.011 2395.116 2433.112 2477.084 2410.805 2320.302 2218.659 2197.372 2052.978 2050.657 2108.157 1929.158 1720.225 1687.761 2109.298 2098.811 2093.178 2071.864 2061.065 2045.537 2027.2 2006.52 1977.413 1968.679 1954.352 1945.785 1940.321 1936.198 1934.922 1928.74 1902.231 1875.33 1872.47 1830.436 1786.154 1748.981 1706.349 1665.654 1632.627 1598.476 1568.035 1477.525 1452.28 1378.296 1340.485 1359.951 1334.748 1305.872 1283.097 1236.589 1179.917 1126.391 1102.535 1113.758 1156.512 1166.069 1116.438 1077.444 1042.125 1018.19 1001.356 992.3258 994.2179 998.6292 1006.968 1012.449 1012.606 1014.074 1016.555 1010.784 1007.112 986.2191 961.0822 938.9071 899.3455 875.2902 842.7262 822.6465 813.9277 786.5824 777.3406 745.8544 719.748 700.4087 671.8951 662.193 646.0251 642.1221 645.4104 642.8964 644.875 640.0933 637.8879 638.1396 637.1451 638.4296 637.1053 636.4128 638.2576 638.2369 638.601 632.1357 623.8159 616.0321 603.6586 596.7183 584.6289 575.8634 572.0454 560.4227 554.2229 536.694 520.1971 506.1954 481.6017 466.8851 441.1498 419.8549 402.3589 371.5376 353.9517 327.1445 308.1862 295.0514 273.1138 248.941 216.1163 188.6053 161.1119 143.8999 121.5001 94.39673 75.28796 53.80737
-586.8698 -569.1917 -554.7119 -545.8434 -532.3263 -418.9767 -448.8611 -427.9572 -363.1004 -297.08 -245.1421 -220.0736 -228.4346 -233.7598 -163.4053 -57.86789 39.19485 171.1312 294.4983 441.9593 647.3011 833.8832 1000.312 1110.817 1127.839 1076.328 1008.279 927.3209 823.1487 675.9801 445.6375 203.0286 -1.098785 -150.7311 -250.922 -291.3125 -300.532 -328.4581 -368.4838 -440.0026 -545.2737 -626.897 -692.8078 -731.08 -774.48 -815.6486 -835.2109 -840.7317 -834.0351 -815.3845 -777.9987 -749.5208 -699.9446 -655.1851 -619.3241 -535.2491 -487.3719 -434.3203 -387.7236 -351.1849 -267.6566 -214.407 -140.311 -95.71661 -66.62445 -35.26326 477.3024 935.3657 1269.495 1257.051 1371.61 1761.433 1704.369 1471.28 1573.946 1868.297 2020.219 2262.369 2059.522 1886.521 1875.629 2590.92 2694.513 2685.975 2586.52 2382.522 2365.516 2382.911 2432.238 2503.066 2495.382 2441.36 2316.65 1797.594 1720.427 1805.533 1817.88 1661.72 1647.246 1574.531 2184.555 2385.372 2095.754 2088.965 2047.993 2044.755 2040.18 2026.885 2004.489 2002.338 1995.502 1967.026 1961.808 1955.049 1953.718 1947.452 1998.512 1956.179 1916.098 1882.171 1854.023 1825.56 1783.528 1750.44 1718.333 1688.925 1665.653 1640.665 1531.626 1511.046 1592.188 1434.452 1382.96 1337.663 1284.323 1254.372 1231.446 1177.734 1123.365 1114.416 1215.514 1228.826 1183.746 1132.413 1086.826 1045.163 1015.365 1002.325 1007.646 1020.192 1029.691 1033.707 1034.654 1036.351 1038.421 1032.735 1027.158 1004.352 980.7905 962.6956 928.5731 908.3695 875.1117 853.2376 840.4759 806.6288 792.0447 754.9043 725.0038 703.7069 672.8958 661.4541 643.3741 638.3214 640.1464 635.9626 637.2094 632.0283 630.2598 631.733 631.8777 634.2446 633.7189 633.6615 635.8037 635.9182 636.4998 630.3555 622.1923 614.9382 603.9033 598.6797 588.3032 580.821 577.3341 565.6086 558.859 540.9888 524.8313 511.4487 486.8726 471.6996 445.5408 423.2728 404.6801 374.2416 359.1505 334.4785 315.882 302.2051 278.7462 252.2882 217.4924 188.6388 159.5392 140.2894 116.0729 87.71521 67.849 46.01123
-599.1168 -579.4545 -562.0069 -549.8115 -531.1373 -509.4485 -482.9688 -423.6544 -348.9126 -282.0671 -216.9725 -168.555 -150.0714 -137.7409 -62.33646 31.99292 128.9725 258.9855 360.2046 512.264 694.9223 831.4805 921.3009 954.8217 915.3196 818.4053 737.1605 661.9993 574.089 453.8163 273.5873 90.26342 -73.95544 -201.4003 -282.0108 -318.8209 -333.909 -367.2946 -410.2821 -483.4312 -584.8913 -660.1002 -718.9419 -751.1239 -784.6292 -810.666 -819.0992 -815.4738 -802.6283 -775.3376 -727.229 -692.0263 -634.317 -590.6334 -534.1298 -453.4342 -422.4614 -380.5701 -334.9821 -289.6388 -212.9274 -156.3721 -84.55177 -65.71266 19.74521 410.4413 1205.014 1290.383 1575.417 1564.5 1848.153 1949.384 1822.795 1584.664 1624.172 1985.801 2288.143 2467.521 2543.614 2636.481 2054.684 2241.108 2716.852 2894.552 2677.295 2477.572 2449.892 2406.389 2322.697 2266.801 2454.445 2360.46 2255.626 1790.099 1737.195 1619.514 1543.696 1606.954 1455.925 1734.767 1844.776 2141.366 2149.137 2073.979 2060.244 2047.457 2044.633 2044.173 2046.304 2091.395 2020.933 1995.279 1991.257 1968.176 1965.714 1960.733 1955.688 2135.535 1965.499 1928.964 1906.901 1881.449 1852.72 1822.243 1791.537 1766.573 1743.755 1721.967 1747.084 1658.355 1596.355 1537.687 1478.235 1402.333 1326.585 1282.09 1237.769 1182.151 1136.427 1177.323 1277.284 1266.793 1233.045 1186.505 1133.736 1078.553 1037.32 1021.198 1029.727 1046.374 1057.188 1061.795 1064.21 1066.296 1038.997 1031.661 1054.412 1032.616 1012.456 999.4367 969.9355 951.0732 915.9113 890.5651 871.679 829.2682 807.9457 764.9553 732.1178 709.6794 676.3273 663.0608 642.7734 635.2567 634.7316 628.1864 628.1129 622.8118 621.5361 624.2424 625.557 628.6494 628.9106 629.386 631.5883 631.7148 632.2745 626.3431 619.0114 613.037 603.3721 599.7086 591.0792 584.6959 581.0394 569.0338 561.749 544.0659 528.2225 515.141 490.8427 475.6926 449.2196 426.1544 407.5441 378.6105 365.8796 342.5862 324.1678 309.385 284.0074 255.3469 218.3279 188.3983 157.7262 135.9839 108.8468 78.18494 56.69373 34.33496
-606.2918 -585.5532 -566.3575 -551.8773 -529.2598 -506.3792 -487.6353 -445.0246 -384.2103 -321.0911 -243.3873 -168.4381 -114.1571 -73.07303 2.715149 116.8649 234.5141 324.1419 395.4785 534.4531 676.3352 758.1801 772.1665 726.2114 645.6328 530.6908 422.7162 356.3455 308.2349 217.9159 92.45303 -31.81397 -154.2526 -232.3555 -290.3564 -326.6699 -351.676 -395.5315 -440.1408 -511.9199 -607.3858 -676.6141 -729.0173 -756.5575 -784.1642 -803.4041 -805.447 -796.4629 -780.1802 -751.2856 -693.189 -652.8077 -598.924 -541.2841 -480.4445 -421.5765 -401.3256 -343.5295 -296.586 -247.4071 -172.4932 -132.681 -58.1331 -20.31544 430.9538 850.6556 1085.83 1236.932 1528.246 1921.31 1981.446 1956.936 2041.74 1689.223 1724.144 2225.538 2973.718 2827.546 2752.37 2510.785 2516.09 2448.77 2815.44 3048.466 2840.181 2562.896 2449.669 2380.142 2046.557 2009.418 2248.802 1896.325 2097.983 2191.428 2089.766 1529.968 1467.392 1468.432 1623.415 1650.606 1802.01 2123.811 2289.352 2064.47 2073.672 2061.392 2068.404 2057.552 2064.945 2207.977 2133.957 2041.493 1987.912 1971.977 1969.211 1974.498 1970.792 1997.047 1971.795 1967.373 1955.788 1938.13 1907.286 1881.263 1862.687 1842.671 1817.599 1810.857 1789.234 1743.074 1671.815 1608.171 1540.353 1490.548 1432.409 1377.279 1282.493 1224.063 1182.006 1232.854 1274.658 1282.515 1255.002 1212.534 1161.727 1099.254 1053.336 1038.274 1047.368 1062.292 1072.329 1078.492 1056.58 1050.032 1039.502 1027.75 1022.404 1012.394 1003.473 1027.448 1000.851 983.3768 944.8803 912.8832 887.7653 839.6674 814.7267 769.46 736.3068 714.0547 679.7598 665.7084 643.3127 632.8743 629.3094 619.9515 618.5648 613.2224 612.9213 617.0745 619.9384 624.0414 624.7828 625.4949 627.6106 627.618 628.0973 622.3572 616.0216 611.4856 603.3827 601.1121 593.7128 587.7849 583.5676 570.9113 563.1316 545.5874 529.8638 516.9519 492.9879 477.9032 451.1105 427.7325 409.9125 383.0209 372.3552 349.912 331.838 316.5265 289.3899 259.3707 221.483 190.8806 159.3079 135.6981 105.9523 73.01233 49.90588 27.03149
-618.4808 -596.556 -575.0835 -558.1397 -530.9163 -500.004 -483.9826 -464.3275 -431.3873 -373.8859 -290.6084 -203.743 -125.4469 -44.763 54.35828 176.239 284.1391 348.0815 408.9686 514.4113 604.3866 630.7483 596.2357 495.6523 370.826 241.5638 132.136 69.36913 46.74614 -0.4369812 -81.97523 -162.4407 -238.6589 -280.7476 -325.0187 -370.1944 -407.2167 -454.9035 -496.3432 -558.1497 -637.1857 -692.4783 -733.5106 -753.5845 -772.0248 -780.1625 -773.5819 -755.3777 -741.1895 -696.8054 -631.5889 -594.0067 -521.1727 -450.5595 -416.1931 -366.3331 -334.9297 -279.6362 -231.5681 -187.0964 -111.9435 -73.23154 -29.17332 312.8863 454.3361 1077.753 1181.565 1123.711 1658.803 1730.649 2045.978 2150.602 2190.682 1782.796 1760.217 2118.707 3102.007 2857.636 2834.941 2759.759 2752.158 2654.967 2846.121 2809.539 2830.43 2549.411 2047.624 1915.522 2209.714 1972.777 1867.746 1755.834 1814.306 1892.151 1637.603 1528.713 1444.141 1425.724 1580.827 1847.902 1683.878 1882.797 2400.824 2243.692 2099.953 2087.669 2126.93 2188.176 2289.723 2357.598 2220.675 2056.208 1973.285 1980.233 1968.521 1964.282 1970.205 1981.653 1979.53 1994.184 1992.94 2044.344 1936.887 1921.855 1905.869 1895.57 1920.877 1885.761 1859.125 1802.235 1747.126 1685.756 1623.18 1568.821 1515.134 1459.044 1398.949 1346.345 1279.914 1271.033 1269.834 1289.815 1282.138 1237.29 1188.887 1129.692 1085.618 1073.888 1079.549 1089.97 1101.691 1069.944 1056.794 1044.262 1030.424 1017.92 1010.687 1006.623 1004.838 1005.093 992.5272 971.9814 973.6565 934.0325 903.9277 851.1251 823.9977 776.9752 743.5723 721.0137 684.3833 668.6967 642.9889 628.3353 620.7861 607.4834 603.996 597.4004 597.9104 603.7396 607.9672 613.3325 614.623 615.4371 617.4938 617.3285 617.8174 612.8524 607.8918 605.1884 599.3568 598.5798 592.6389 587.3041 583.0787 570.9114 563.4199 546.6488 531.5112 519.2463 496.0662 481.2036 454.2462 430.7002 413.7594 388.4891 379.1554 356.6935 337.9824 321.5966 292.6886 261.7245 223.5203 192.5985 160.2539 135.308 103.7375 68.31165 42.71936 18.29004
-629.3199 -607.4659 -584.8485 -566.7928 -538.3109 -499.5561 -482.5797 -473.463 -458.2687 -423.2144 -334.4418 -257.7939 -169.775 -68.07089 66.44324 191.4311 271.0082 331.0162 378.2414 446.9083 490.4606 474.9571 400.1548 272.9868 132.8387 -0.214325 -87.37339 -123.7294 -138.1304 -170.3989 -225.0857 -267.3212 -303.8737 -335.4689 -378.7784 -432.103 -475.1698 -517.0378 -549.2313 -596.2092 -653.9351 -692.434 -720.2673 -733.8806 -740.1328 -741.86 -734.5908 -721.8342 -691.9028 -648.2599 -589.6287 -537.5784 -447.4752 -397.9277 -379.0761 -316.8289 -284.1071 -232.5615 -180.5349 -139.6406 -67.4351 -37.34122 275.1652 803.4391 1116.911 1413.178 1588.964 1722.511 1585.93 1644.899 1852.68 2375.979 2375.39 1934.861 2022.468 2600.874 3259.038 3420.878 3046.809 3140.9 2749.055 2454.998 2670.928 2325.452 2683.141 2438.537 1900.764 1853.565 1831.036 1736.893 1756.024 1711.811 1755.531 1835.741 1557.384 1468.776 1407.295 1381.198 1411.569 1479.009 1509.755 1836.531 2164.654 1816.404 2302.872 2254.699 2145.046 2223.967 1932.922 1781.795 2146.708 1907.629 1937.43 1947.548 1927.198 1937.511 1988.759 1978.106 2237.276 2269.174 2015.281 2056.894 1989.378 1966.013 2014.774 2000.714 2031.008 2001.858 1871.787 1849.15 1807.563 1761.468 1709.513 1655.669 1605.069 1546.036 1491.127 1438.917 1404.932 1378.463 1314.825 1305.705 1289.903 1245.767 1197.086 1145.983 1125.571 1113.354 1116.852 1092.514 1081.917 1069.065 1057.457 1032.535 1016.982 1005.504 1000.494 999.6157 998.949 1001.006 985.9773 963.5363 942.3431 912.6569 917.8495 861.6712 832.8412 784.4464 750.8141 727.8918 689.3207 671.1027 640.9094 621.8188 610.3031 592.5692 586.3672 577.5466 578.1407 585.3401 591.0325 598.0138 600.3608 601.7516 603.9879 603.5681 604.0333 600.4004 597.3989 596.5952 593.4957 594.1448 589.6986 585.223 581.7126 570.6072 563.681 547.9808 533.6234 521.7863 499.2366 484.5739 457.642 434.2072 418.0776 393.7809 384.7974 362.304 342.7639 324.8242 295.0739 264.2238 225.9794 195.0585 162.5408 137.1014 104.3284 66.30396 37.87634 12.19556
-637.5852 -616.2673 -593.4325 -574.8909 -545.854 -505.8134 -480.5577 -468.5993 -466.3579 -446.9911 -359.5429 -306.0036 -227.7281 -131.6943 0.2016907 126.1237 198.9637 254.7609 300.1074 342.8812 350.3578 300.1993 212.2425 93.3625 -35.34645 -144.3504 -200.9036 -211.4636 -208.5854 -236.198 -278.3845 -319.0379 -358.5994 -387.4451 -434.9912 -493.3535 -535.0797 -572.1713 -596.5496 -628.0968 -663.9429 -686.4901 -697.0182 -694.1943 -708.303 -712.8705 -707.4897 -683.3911 -653.4432 -615.676 -542.5463 -476.5893 -408.387 -370.4067 -337.1363 -277.1897 -245.3764 -191.445 -140.2076 -98.20758 -34.37227 53.01178 798.1903 1167.98 1366.98 1378.036 1545.967 1725.098 2190.042 2027.256 2267.191 2606.427 2756.21 2067.942 2361.074 2853.819 3350.534 3459.278 3252.697 2992.828 2380.845 2285.289 2238.756 2286.011 2345.223 2263.62 2148.767 1824.543 1795.304 1724.286 1639.223 1642.437 1721.092 1795.13 1840.776 1534.817 1397.773 1338.211 1379.806 1407.917 1681.305 1699.747 1883.461 1612.548 2069.262 2214.766 2056.385 2069.321 1576.726 1552.934 2009.232 1817.13 1808.932 1827.589 1955.601 1840.411 1971.601 2142.973 2193.834 2228.902 2265.486 2274.874 2234.917 2331.511 2114.833 2299.672 2265.399 2186.314 1928.867 1874.04 1844.856 1815.151 1782.356 1740.189 1688.056 1637.111 1588.018 1536.917 1490.382 1453.064 1421.987 1392.362 1315.85 1278.601 1227.229 1170.639 1146.397 1133.594 1126.732 1111.925 1093.509 1074.095 1049.58 1027.267 1009.705 999.4937 995.5051 994.6541 991.9578 983.7057 964.5893 944.2173 922.8723 899.9219 880.2314 849.181 814.0161 791.5986 757.2848 733.7036 692.8879 672.3658 638.1211 614.833 600.0676 578.9249 570.3418 558.6222 557.9806 565.6725 573.7449 584.3491 588.1223 589.4425 591.8583 591.2008 591.6475 589.3064 588 588.5121 587.6616 589.5295 586.6547 583.6396 581.0845 570.8158 564.3092 549.588 536.0356 524.5646 502.1415 487.0992 460.1908 437.427 422.0547 397.9229 388.9408 366.1683 345.9338 327.5376 297.818 266.9767 228.4236 197.3264 164.7991 139.3248 105.9961 66.12012 35.71069 9.386719
-650.6523 -630.4825 -607.9059 -588.8967 -558.9724 -517.7384 -485.8914 -462.8281 -456.6399 -441.9062 -402.6919 -342.5064 -275.129 -205.0153 -106.3552 -3.766083 64.54568 115.1695 153.9608 171.8486 146.7161 58.60428 -26.22743 -98.71657 -187.9444 -261.3903 -290.5363 -285.3314 -287.4155 -315.7308 -357.8894 -402.2703 -447.9435 -483.2447 -534.0531 -596.7772 -638.299 -666.6232 -676.6487 -681.6567 -677.9835 -665.4581 -649.3535 -657.8106 -664.6582 -659.1569 -636.2854 -624.3132 -595.8942 -543.0374 -442.809 -404.5956 -342.0326 -299.522 -265.0403 -207.1664 -174.4602 -111.0021 -72.53104 -30.95279 16.394 780.9709 1185.43 1381.836 1592.099 1669.555 1703.247 1808.667 1987.404 2521.86 2630.17 3086.384 2995.796 2737.622 2705.295 2996.366 3112.886 3368.466 2879.005 3138.692 2739.198 2266.101 2189.101 2264.62 2166.024 2099.994 1940.536 1813.715 1755.791 1688.277 1592.778 1539.948 1637.835 1729.727 1895.576 1799.25 1395.403 1323.7 1334.857 1445.457 1508.435 1688.685 1488.135 1519.125 2093.375 2081.639 1777.198 1609.322 1479.959 1809.511 1727.859 1752.567 1769.107 1678.332 1793.247 1767.197 1894.136 2130.598 2110.209 2106.605 2138.274 2207.314 2279.608 2325.372 2010.926 2002.366 2031.567 1961.218 1956.716 1881.013 1874.108 1860.372 1837.522 1805.257 1763.665 1720.974 1683.416 1632.549 1584.296 1542.859 1508.794 1475.779 1431.838 1382.804 1339.933 1297.09 1222.478 1195.361 1173.585 1144.291 1134.417 1095.369 1060.501 1031.183 1011.138 1000.493 995.8527 992.5489 983.2026 968.8959 945.3673 919.2641 899.3587 876.4131 858.4195 831.1983 805.6786 781.4984 753.9803 722.2766 692.9581 669.1003 630.1949 602.5979 584.7452 559.1302 547.2905 530.3422 527.2321 535.2863 544.9565 560.4614 567.7494 568.4753 569.6427 568.2799 568.2277 566.8129 567.3005 569.7544 572.8535 577.6786 578.6592 577.6982 576.3843 567.8864 561.9067 548.5613 536.0283 525.1642 503.3641 488.2012 461.6554 439.7882 425.3396 401.2975 391.8556 368.6335 347.9432 329.8324 300.9923 270.3232 231.3005 199.7435 166.8936 141.1956 107.9791 67.78479 36.6377 10.19092
-657.946 -638.5967 -616.1813 -596.7925 -566.5851 -524.91 -491.9525 -462.8972 -447.7485 -430.5491 -398.6682 -358.7349 -321.9841 -282.6496 -218.7031 -148.1219 -85.24033 -35.36136 -8.335602 -12.73993 -44.85352 -128.4433 -207.4372 -237.3784 -274.0531 -310.075 -313.0631 -315.476 -330.4512 -364.3029 -415.6821 -460.5722 -503.1704 -537.4748 -589.4193 -653.2211 -692.3614 -711.1469 -719.1677 -709.5882 -676.1699 -644.5632 -635.4278 -635.4898 -636.4205 -616.9412 -602.9922 -592.1935 -555.7457 -481.915 -405.9172 -371.254 -304.8729 -256.5581 -223.9916 -165.3121 -141.8982 -81.29752 -31.87123 29.61432 511.4504 901.2153 1233.378 1231.311 1361.953 1496.439 1633.473 2078.947 2236.815 2737.733 3080.836 3022.124 2934.059 2951.073 2969.6 3098.914 2857.181 3083.333 2809.398 2840.784 2693.681 2247.944 2151.076 2178.052 2123.594 2070.99 2049.894 1836.212 1805.902 1694.893 1581.902 1481.8 1430.882 1507.64 1791.035 1702.042 1356.639 1294.149 1266.038 1358.036 1446.602 1335.624 1414.775 1736.12 1993.603 1643.972 1559 1417.511 1420.762 1842.59 1859.295 1688.551 1692.91 1681.592 1685.049 1759.664 1945.336 1828.933 1944.534 1919.968 2072.136 2111.976 2159.946 2124.275 1933.507 1910.703 1897.641 1902.722 1902.668 1900.318 1893.32 1887.55 1878.517 1859.454 1823.45 1790.589 1760.232 1716.115 1674.303 1637.402 1603.75 1571.717 1531.729 1477.869 1428.808 1391.83 1356.107 1319.119 1282.679 1235.349 1179.302 1126.411 1081.623 1044.486 1018.404 1004.713 997.1832 989.3806 975.3764 953.3898 923.9489 898.4116 878.3442 858.5302 836.9379 810.8179 786.1957 764.9644 742.2968 715.1599 688.6393 656.998 623.5293 594.3993 575.647 547.7146 534.1154 514.951 511.8235 521.9771 533.7744 552.8738 563.8671 564.1387 562.246 558.8942 557.3273 554.7738 555.5933 559.5834 565.9763 573.2891 576.9294 576.5787 575.0724 567.4517 561.6389 548.5519 536.1343 525.3851 503.9321 488.9332 462.9119 441.5284 427.6901 404.1598 394.4064 370.4143 349.2689 331.9475 304.1649 273.7561 234.5649 202.5973 169.307 143.3396 110.4181 71.14392 40.61401 14.23169
-666.8327 -648.4297 -626.3981 -606.9547 -576.7184 -536.0141 -502.564 -470.6993 -449.338 -423.0401 -389.3138 -361.0805 -340.4492 -334.9057 -304.3832 -267.3267 -230.0418 -194.7324 -173.3018 -190.6475 -233.5701 -295.3814 -359.3688 -373.5627 -365.9579 -371.7253 -378.4781 -394.151 -414.1026 -448.0319 -497.0762 -537.1398 -576.6265 -608.9873 -659.3561 -718.0726 -752.996 -775.1345 -767.3315 -734.382 -671.7435 -636.2961 -614.3569 -601.5201 -570.9643 -561.4574 -553.7076 -522.2753 -472.6854 -417.6093 -347.8233 -312.778 -240.6978 -190.9105 -155.9232 -112.5122 -74.13148 -22.63101 20.92094 376.7676 577.5028 943.3809 1028.01 1092.879 1338.284 1497.451 2163.072 2129.391 2117.342 2301.284 2708.844 2569.856 2396.582 2484.112 3100.417 2963.577 2839.255 2637.403 2748.22 2483.357 2344.285 2092.833 2232.21 2075.575 1966.22 1958.531 1995.986 1929.412 1846.388 1726.025 1585.928 1476.943 1378.671 1405.308 1631.241 1607.635 1320.967 1256.142 1188.785 1260.416 1330.455 1252.909 1330.798 1732.99 1973.06 1660.117 1374.46 1317.616 1439.426 1728.15 1783.333 1590.723 1647.95 1623.536 1691.609 1690.438 1720.031 1664.737 1742.808 1905.61 1766.364 1787.01 2040.364 1935.04 1956.37 1916.954 1917.056 1913.014 1908.482 1905.715 1904.436 1905.712 1901.031 1881.313 1854.149 1838.198 1810.461 1777.695 1747.725 1719.674 1691.072 1661.531 1629.099 1586.279 1537.26 1496.44 1458.693 1413.952 1364.467 1305.234 1235.864 1161.588 1100.415 1051.925 1018.119 999.2623 987.3464 975.5803 959.0827 933.5389 903.6177 879.342 858.7646 840.7922 819.9019 795.7979 771.9644 750.1282 728.6671 704.2085 679.6115 651.8367 624.4481 600.2863 572.4749 531.1387 516.9514 497.8014 496.6604 509.9474 524.9486 545.6405 557.2615 556.3641 550.7172 544.2186 540.75 537.5723 539.5417 546.1714 556.6001 566.2162 572.004 572.49 570.4993 563.2419 557.7273 545.0582 532.6417 522.0057 501.7869 487.8481 463.1759 442.9302 429.9825 407.3071 397.2556 371.4989 349.6571 333.583 306.8601 276.9467 237.9275 206.032 172.9517 147.3553 114.8265 77.08936 48.5116 22.55371
-672.0926 -654.251 -632.7606 -613.7524 -584.4958 -544.2913 -511.8565 -480.741 -456.4969 -423.0851 -386.0995 -363.2498 -349.5175 -352.1629 -356.9641 -345.7664 -328.0517 -314.4117 -299.3528 -305.3015 -334.8506 -380.9316 -416.7508 -414.1507 -405.2828 -414.5419 -433.4451 -455.1617 -474.3093 -505.2171 -548.5495 -583.7005 -616.3104 -644.2335 -695.0731 -755.1908 -793.85 -801.4307 -770.4221 -728.6594 -677.538 -630.5248 -596.245 -557.9147 -547.2191 -525.0064 -511.4624 -455.6372 -423.9224 -379.0185 -306.3401 -269.3401 -199.9964 -131.8794 -108.7482 -82.53157 -34.47055 51.76926 79.62865 489.111 601.8093 918.5084 868.0608 1203.189 1468.6 1546.914 2117.251 2160.44 2074.332 2040.335 2185.075 2273.891 2339.819 2425.25 2908.164 2913.141 2775.684 2543.654 2478.085 2207.099 2061.308 1983.005 2073.649 1983.836 1941.051 1858.007 1860.462 1828.078 1842.741 1824.061 1611.314 1511.5 1373.72 1329.261 1404.436 1433.243 1421.655 1246.951 1141.522 1241.348 1227.197 1182.313 1383.073 1584.589 1553.115 1647.115 1248.291 1202.917 1308.083 1642.129 1392.241 1181.91 1441.908 1626.697 1546.068 1562.829 1684.325 1617.745 1647.453 1824.769 1635.466 1563.622 1869.447 1826.348 1900.04 1953.919 1961.706 1928.22 1918.86 1912.356 1912.606 1911.483 1907.992 1888.406 1873.765 1862.128 1840.033 1819.158 1798.933 1779.132 1759.225 1737.806 1712.744 1681.921 1641.012 1599.986 1558.818 1511.122 1449.895 1373.79 1291.296 1202.809 1121.452 1055.622 1012.907 986.3077 971.774 959.6092 941.6953 917.1756 888.6955 864.4976 846.1817 826.9926 805.1309 782.033 759.7108 739.8494 721.765 701.7638 678.9423 653.324 621.5763 597.6917 574.9662 551.9221 535.0231 517.9546 493.8853 511.5133 529.8282 549.8844 560.1792 557.3314 548.9064 539.3977 534.0883 530.7732 533.684 541.9795 554.1296 564.5785 570.5497 570.7875 567.7078 559.3 553.3546 540.6344 527.8956 517.5844 499.1724 487.1808 464.4573 445.8905 433.7546 410.8549 399.7777 372.735 350.2686 334.4531 308.1628 278.9292 240.6202 209.3744 177.2527 152.7715 121.1499 84.75928 57.53601 31.97876
-674.8242 -657.3289 -636.5077 -618.2598 -590.3638 -552.1448 -521.1423 -490.9583 -467.0085 -430.5869 -388.3083 -364.5054 -349.1204 -347.2329 -362.4761 -377.7748 -382.8234 -383.9509 -379.9541 -383.1114 -395.2626 -413.6675 -418.5626 -419.0139 -439.3059 -461.2052 -479.8918 -500.9648 -518.2234 -544.4109 -577.3884 -599.1575 -626.5497 -666.1668 -712.2983 -757.3234 -785.5036 -806.9407 -777.7625 -743.5838 -677.8102 -620.0974 -561.0713 -542.3077 -530.8888 -502.5124 -451.9655 -420.9443 -395.5355 -351.6147 -280.7421 -244.4019 -173.6903 -122.4053 -96.4418 -61.95291 -12.12036 86.07645 166.4238 304.7936 509.2756 632.8207 678.5726 851.5969 1109.619 1357.407 1920.944 2023.672 1965.764 1983.542 2097.792 2216.465 2324.774 2440.341 2898.537 2901.653 2698.583 2426.729 2265.209 2452.56 2270.909 2044.551 1939.076 1912.619 1857.699 1785.916 1766.63 1810.581 1857.635 1747.362 1648.793 1556.721 1418.664 1262.645 1292.891 1297.198 1399.848 1217.889 1128.158 1159.103 1158.168 1335.618 1901.101 1558.624 1455.988 1459.852 1202.275 1147.912 1206.298 1606.907 1228.68 1121.067 1138.557 1686.68 1267.656 1152.64 1625.135 1615.653 1592.169 1809.072 1499.497 1560.635 1625.135 1567.371 1846.941 1942.69 1974.916 1943.785 1918.346 1909.961 1914.214 1915.87 1906.551 1888.515 1881.342 1874.905 1857.579 1841.206 1826.521 1816.233 1801.667 1786.209 1769.892 1748.327 1717.304 1685.853 1647.725 1594.476 1530.53 1452.695 1356.385 1249.9 1153.981 1071.641 1010.835 975.4265 956.5506 941.6021 922.6713 900.1344 875.5801 855.9669 838.4544 820.2445 797.7936 771.6082 748.656 732.8088 717.6941 701.9307 681.9053 658.1382 633.327 610.2406 592.655 568.0876 552.4056 538.0991 531.8151 542.158 553.4496 557.1475 563.9365 559.1885 550.0073 538.8846 532.8417 529.5562 533.1849 542.6752 554.9626 564.9021 569.8105 568.5266 564.0988 555.0919 548.6196 535.4269 522.9497 514.0422 497.5717 487.9264 467.9391 451.103 439.2136 415.1631 402.4702 375.2744 352.6891 335.7485 308.6312 279.5682 242.5083 212.4756 181.587 158.3278 128.0402 92.49316 65.59131 39.76489
-677.5858 -660.8832 -641.4103 -625.028 -600.4003 -566.5977 -538.783 -510.5503 -487.0501 -450.3049 -404.9763 -376.7177 -360.1177 -353.766 -363.5596 -394.3421 -415.9959 -430.2155 -437.3935 -451.6402 -468.6533 -473.483 -485.0481 -497.3741 -514.7426 -535.6868 -553.187 -570.6917 -580.162 -591.9847 -616.3785 -640.7114 -665.6646 -699.4877 -738.1005 -761.3115 -767.7355 -781.0248 -783.1344 -729.0055 -647.1456 -575.9329 -535.7645 -512.6573 -485.4635 -432.4488 -397.1905 -362.3412 -340.7777 -290.5008 -236.9027 -200.8618 -139.9171 -83.58632 -56.4408 -26.56536 -0.4858856 106.0152 196.191 449.0856 649.4105 744.4276 726.3232 907.048 1174.48 1281.369 1343.206 1592.906 1789.208 1967.297 2071.95 2221.507 2728.256 2786.914 3042.387 2937.808 2637.373 2336.742 2196.598 2459.6 2375.746 2065.32 1932.989 1865.579 1827.526 1734.193 1692.739 1711.753 1801.561 1704.026 1584.997 1660.369 1505.64 1261.653 1170.065 1229.628 1312.803 1211.52 1081.852 1066.869 1117.192 1340.961 1554.08 1735.31 1449.904 1174.761 1118.946 1037.082 1139.679 1355.994 1249.166 1103.435 1127.95 1598.729 1204.758 1103.812 1102.513 1296.318 1554.966 1770.813 1339.157 1415.649 1468.977 1831.953 1730.883 1888.904 1953.866 1919.36 1900.484 1899.885 1915.596 1931.818 1918.022 1899.183 1897.248 1906.912 1889.505 1864.802 1860.664 1841.619 1835.307 1827.259 1813.972 1798.368 1777.728 1752.905 1718.155 1667.203 1602.555 1521.731 1420.763 1306.912 1198.159 1102.337 1024.345 914.9909 899.1477 925.743 910.193 889.6837 868.1902 851.8259 834.6887 814.7544 793.369 768.3331 742.3785 724.7908 717.6873 707.4777 688.75 666.0565 645.2621 626.4082 613.0089 602.3851 592.0825 573.423 568.1765 568.3613 567.7673 566.9319 564.7397 554.6323 546.8978 537.3571 531.9677 529.3663 532.9598 542.0234 552.7837 560.9178 563.1942 559.7195 554.8035 546.4304 539.8816 527.215 516.4325 509.6791 495.3411 487.8796 470.474 454.9004 442.9891 418.2104 404.1381 376.5828 353.6379 335.7352 308.608 280.2791 245.046 216.8868 187.9365 166.3564 137.7905 103.6064 77.39294 51.63232
-678.9815 -663.2295 -645.0007 -629.8014 -607.2652 -576.2725 -550.7601 -523.9154 -500.4884 -463.3272 -416.3193 -385.9341 -367.5089 -362.2131 -366.8107 -391.5963 -416.9266 -437.1484 -451.128 -470.1232 -491.5505 -506.7992 -525.2319 -538.0392 -553.6661 -567.321 -582.4709 -594.8388 -599.6826 -617.0196 -647.1384 -674.8909 -698.6479 -717.2892 -730.2617 -757.6846 -771.8859 -784.2183 -754.4038 -703.5294 -623.2023 -570.9761 -516.1162 -486.4847 -445.5601 -401.1442 -369.5204 -342.6242 -308.2044 -266.3556 -211.0266 -179.978 -113.4735 -50.26633 -29.25096 -11.25604 67.22487 188.8185 523.1541 654.3226 792.8975 915.2522 991.0239 1118.802 1241.463 1297.78 1392.727 1669.115 1872.077 2085.128 2353.436 2812.698 2985.02 2764.902 2766.299 2727.935 2422.168 2159.799 2127.593 2261.401 2173.612 1961.095 1880.245 1867.816 1810.893 1726.18 1647.903 1639.853 1662.971 1859.377 1552.971 1495.265 1581.231 1294.395 1095.431 1094.375 1250.325 1239.797 1044.309 1012.968 1065.543 1380.133 1667.949 1662.219 1462.189 1238.78 984.5175 947.5945 1095.252 1411.949 1151.799 1086.058 1113.458 1386.639 1084.151 1039.186 1053.105 1264.743 1541.164 1717.058 1256.558 1386.918 1606.035 1717.888 1524.484 1683.255 1908.411 1917.391 1858.165 1866.677 1909.782 1933.429 1922.662 1914.198 1914.535 1912.734 1914.32 1909.438 1887.536 1809.975 1764.279 1853.265 1847.918 1834.66 1823.907 1806.008 1771.359 1727.014 1671.939 1593.751 1493.508 1380.526 1260.923 1026.066 942.3669 928.1395 926.6927 913.0374 894.0983 877.8541 861.4781 842.5989 826.9014 807.1705 783.348 761.2352 738.6406 722.4296 717.535 708.7434 692.9465 678.2163 662.7114 648.0747 639.0216 633.3502 628.2185 621.8759 613.3547 604.3569 584.7539 568.3402 558.5004 549.8949 544.459 538.0421 534.689 533.5471 537.267 544.4695 552.725 558.6033 558.4414 553.875 549.3822 541.4646 535.6459 524.7034 515.7195 510.4371 497.5167 490.8502 474.0436 458.9247 446.3761 420.7688 406.2343 377.8571 353.5756 334.9833 308.3486 280.9681 246.92 220.1757 192.8038 172.2222 144.4236 111.0992 85.26062 59.65442
-681.9875 -667.5778 -651.2379 -637.6141 -617.7698 -590.9955 -568.6672 -543.4464 -519.7711 -481.4506 -432.8177 -401.2188 -382.6665 -378.2633 -385.5629 -408.5959 -431.8296 -455.5049 -471.7858 -497.1159 -530.925 -555.4965 -575.7054 -587.7046 -603.2895 -616.9268 -626.7935 -635.4678 -645.1902 -665.6216 -685.7382 -704.9381 -720.0413 -712.4565 -722.0034 -755.2922 -768.7291 -748.8705 -720.9309 -668.0039 -598.2477 -530.8688 -467.7419 -440.5573 -398.4669 -346.58 -324.688 -282.1494 -258.2237 -222.3856 -177.6464 -140.7583 -69.86869 -16.94292 13.68607 1.452675 24.65411 303.8868 703.7645 830.7336 858.1683 1070.692 1180.184 1442.044 1599.358 1662.087 1709.258 1972.427 2225.008 2548.502 2377.024 2636.303 2834.924 2665.019 2488.705 2678.295 2493.566 2178.087 2053.341 2242.479 1991.676 2028.375 2139.175 1997.441 1826.318 1716.419 1608.993 1586.448 1612.266 1792.276 1592.182 1467.967 1429.469 1298.877 1061.728 980.5876 1145.373 1350.619 993.9877 968.2096 1048.135 1289.07 1345.124 1163.657 959.4532 840.1723 886.3071 893.7656 924.5149 973.8043 1004.982 1039.758 1101.768 1143.994 1074.122 1074.628 1086.381 1484.641 1501.236 1537.064 1243.77 1224.858 1440.827 1376.513 1427.847 1815.47 1800.416 1781.18 1793.455 1834.569 1898.687 1917.338 1925.745 1923.465 1918.693 1914.829 1915.731 1914.317 1911.23 1886.554 1860.964 1853.911 1853.572 1847.818 1840.584 1825.111 1810.613 1768.66 1718.668 1653.335 1566.578 1463.143 1402.916 1208.237 990.088 930.157 916.9499 912.508 901.1323 882.1516 863.1172 844.8429 857.8462 797.879 777.0802 754.0205 738.4637 727.7914 720.1549 708.6124 696.9319 687.1616 678.7072 671.5941 667.8347 664.8666 662.421 657.5732 646.2478 629.4513 608.0391 584.1412 552.7924 543.131 538.4598 534.9202 534.0133 534.2314 538.0336 543.5997 549.311 552.5717 550.9083 546.9331 543.4668 536.5953 532.3577 523.5652 515.6771 511.2767 499.2634 492.2704 475.3757 459.9318 446.9117 421.2616 406.1256 377.4086 353.3383 335.1285 309.3754 283.172 250.7821 225.897 200.3989 180.8153 153.8287 121.4078 96.2168 71.25818
-686.7006 -673.0111 -657.8638 -645.33 -626.9556 -602.3133 -581.0359 -556.0006 -531.5971 -492.5852 -443.8807 -412.1661 -393.9591 -390.7855 -399.9973 -425.6114 -450.656 -474.8502 -491.9516 -518.1909 -552.1553 -576.9245 -597.5136 -608.5869 -623.8169 -639.931 -643.3445 -663.5912 -670.6939 -688.8414 -704.7014 -720.3536 -710.1955 -708.3536 -733.4038 -746.4924 -735.7945 -722.4257 -685.5067 -639.4437 -557.1114 -478.5854 -425.5412 -396.8625 -350.2931 -314.6391 -275.9395 -242.5609 -221.18 -189.9028 -148.7231 -93.79089 -51.84263 51.77921 39.03824 55.34283 146.2041 299.968 563.7422 721.172 832.8257 1046.215 1240.071 1401.936 1696.718 1911.411 2091.889 2229.776 2413.355 2760.318 2268.671 2362.832 2393.447 2558.865 2294.274 2198.701 2198.24 2015.024 1988.012 1998.066 1972.369 1887.215 2004.084 1945.903 1827.251 1697.144 1593.961 1546.243 1541.328 1519.11 1686.266 1497.346 1374.569 1303.335 1099.893 938.6 955.0002 1003.227 956.1174 925.4814 1065.844 1139.759 1050.952 891.4814 659.1869 680.8101 788.679 696.3955 639.7017 645.5175 688.1248 752.0139 824.9922 934.1661 1051.887 1093.584 1389.5 1385.5 1504.022 1499.01 1233.231 1207.521 1278.027 1354.109 1620.894 1897.535 1722.635 1710.776 1735.071 1858.744 1895.404 1907.918 1921.856 1925.135 1920.197 1918.696 1914.301 1914.518 1914.443 1918.911 1917.404 1910.56 1904.531 1897.337 1888.057 1876.518 1865.382 1836.902 1789.568 1776.754 1753.705 1659.013 1522.376 1359.219 1143.295 992.6836 935.9809 891.4208 873.5593 859.3773 829.8209 811.1174 785.8929 780.8376 807.6598 747.8649 734.501 727.251 721.7996 711.4567 699.8192 697.3325 697.3997 697.8108 695.4597 695.0574 693.3628 685.6086 670.5691 648.8927 619.5924 587.0894 548.8197 537.0153 532.062 531.1451 532.3167 534.2786 538.3851 542.6937 546.5369 548.4102 546.9017 544.2003 541.7686 536.2813 533.5034 526.563 519.4908 514.7782 502.3882 494.3237 476.2646 459.9614 446.863 421.3917 405.8134 377.3704 354.2161 336.6749 311.3612 285.9369 255.0443 231.6399 207.4017 188.5983 162.1359 129.9049 104.7958 80.33594
-692.5918 -679.1692 -664.4553 -652.4299 -634.9633 -610.7573 -588.8445 -563.3228 -537.9794 -498.9287 -451.1385 -420.419 -403.6049 -401.4694 -412.2362 -439.3682 -464.8343 -488.5281 -504.9313 -529.3278 -560.4877 -583.0344 -602.6318 -614.2395 -629.3244 -646.8803 -655.0025 -673.0801 -684.4529 -699.9951 -709.886 -705.2589 -713.087 -726.8809 -730.1471 -729.5127 -720.5789 -688.9855 -669.1758 -608.8196 -514.0224 -441.0117 -436.4018 -405.2695 -375.8365 -343.0725 -301.4079 -274.5879 -254.8465 -223.3043 -177.1695 -136.5458 129.4096 20.93005 23.82344 53.6014 219.5247 301.0192 519.4798 612.6234 731.2128 825.2468 1066.181 1331.797 1630.835 1877.519 1975.372 2228.823 2922.271 2821.681 2267.376 2163.556 2153.582 2721.162 2546.171 2128.271 2040.03 1963.781 1916.073 1909.119 1903.115 1886.188 2089.559 1844.546 1760.648 1683.907 1580.615 1483.056 1403.63 1456.566 1556.342 1519.678 1455.758 1343.35 1190.573 997.4764 866.2473 809.0242 834.8015 873.181 997.1047 968.0455 853.4908 513.3705 383.3431 575.1344 660.3263 603.6219 509.4635 408.0804 376.7778 375.5465 405.4237 472.0921 596.1018 755.2825 950.2637 1254.651 1454.873 1440.821 1171.413 1123.5 1190.332 1294.916 1455.222 1750.768 1654.82 1637.519 1704.716 1947.11 1883.631 1892.729 1909.065 1922.621 1921.991 1921.506 1920.841 1917.506 1919.683 1932.693 1926.699 1919.267 1911.788 1905.552 1895.073 1882.606 1871.986 1843.471 1812.74 1812.306 1818.163 1797.872 1717.741 1549.771 1382.14 1219.917 1105.359 999.7949 900.952 852.158 817.8834 773.6587 765.5125 744.9404 735.7506 773.5613 764.897 722.5325 719.1328 716.9071 712.2101 710.8013 711.1688 711.5358 715.7251 719.4137 718.6278 708.3007 689.5325 663.2883 629.5277 591.8507 546.5763 534.2538 528.9486 529.4961 532.3879 535.6407 539.6665 542.6902 544.6017 546.0413 545.4985 543.8998 542.5708 538.4039 536.6494 530.9487 524.5685 518.9126 505.0614 495.4951 476.0137 459.4896 446.8478 421.5524 406.3245 378.6724 356.1361 338.7015 313.5613 288.7266 259.041 236.7472 213.3857 195.1658 169.1067 136.959 111.4657 86.83691
-701.2054 -688.2522 -674.2208 -662.7714 -646.2249 -622.7712 -600.6774 -575.7841 -551.3431 -514.5823 -470.6088 -443.1779 -429.2792 -428.5693 -440.28 -467.2036 -491.0886 -512.1732 -525.7048 -545.0333 -569.6385 -587.8911 -604.5419 -615.4104 -629.7577 -646.861 -658.3094 -672.9119 -688.2434 -690.7224 -692.6512 -697.4958 -722.2844 -716.8137 -714.8109 -699.8591 -668.7211 -644.5064 -613.9186 -543.2682 -450.4713 -381.0554 -413.2569 -380.7921 -361.0647 -319.7243 -296.1657 -278.4718 -252.5462 -206.1544 -146.0242 276.5369 264.1855 20.56361 26.38814 39.14154 296.5158 556.9632 540.3813 609.2222 689.8775 758.6816 828.3501 1270.064 1697.573 1923.228 1889.115 2328.971 2860.931 2725.936 2250.333 2052.874 2081.292 2565.264 2287.488 2144.255 2046.089 1962.274 1882.345 1808.499 1771.045 1802.546 2002.667 1918.381 1784.52 1682.829 1577.057 1413.51 1366.001 1371.486 1386.032 1399.282 1458.204 1498.984 1334.045 1113.873 888.861 746.2426 719.4003 780.8752 811.6165 767.7574 449.2646 205.2045 376.7081 631.7356 596.8138 595.7987 610.6685 603.8118 513.4951 432.2996 358.0229 300.0813 315.5698 397.3318 574.0684 816.0392 934.6761 990.0033 1080.937 1190.072 1171.522 1205.455 1337.325 1566.557 1556.714 1654.39 1681.811 1793.94 1855.671 1876.47 1885.24 1908.069 1922.86 1922.884 1922.814 1931.71 1956.453 1953.244 1935.578 1923.938 1917.061 1905.536 1889.84 1884.599 1877.659 1856.097 1839.238 1837.698 1828.427 1827.487 1808.101 1694.59 1549.219 1413.035 1271.6 1103.79 994.8582 916.3024 862.6011 824.9308 799.83 788.8635 760.9468 712.3113 724.8247 741.6401 726.5365 711.1062 722.4514 719.2247 722.2831 723.2476 730.363 736.3876 737.41 727.0559 705.0062 673.593 636.7789 598.1321 548.3271 534.5944 526.1896 527.7522 530.4808 533.6451 537.0193 539.2451 540.7578 542.08 542.5946 542.3754 542.642 540.0925 538.9639 533.675 527.3857 521.337 506.5769 496.2766 477.2161 461.0514 448.6501 423.8615 409.1807 382.1499 359.7548 342.2946 317.8054 294.0033 265.6115 244.4193 222.1992 204.806 179.5636 148.2983 122.7235 97.70581
-706.6089 -692.9367 -678.574 -666.8814 -650.2349 -626.8823 -604.5667 -580.131 -557.1183 -522.3015 -481.2778 -456.6967 -444.8166 -445.0833 -456.6105 -482.2383 -504.7547 -524.0853 -535.6891 -551.97 -572.5865 -587.815 -602.5543 -613.1107 -626.9117 -643.9035 -656.2273 -673.915 -674.7491 -673.9432 -689.465 -713.7236 -710.5538 -695.5795 -695.4057 -664.2425 -641.1598 -611.4214 -566.0101 -499.2067 -413.9576 -346.5906 -372.2321 -358.9039 -306.2894 -290.3829 -275.7844 -260.8557 -236.1254 -210.3475 268.8167 614.3726 239.3962 -0.6519775 11.83765 4.272186 319.3429 446.1926 710.5986 956.8651 1014.377 830.9481 882.744 1047.458 1717.116 1912.884 2198.627 2082.913 2646.35 2440.163 2147.886 2022.774 2021.468 2083.222 2261.436 1920.878 2019.887 2052.974 1911.056 1777.685 1707.881 1690.438 1762.248 1860.708 1850.594 1740.449 1555.151 1427.809 1328.256 1301.624 1334.359 1334.221 1429.143 1397.478 1276.336 1147.99 950.4183 749.3544 648.5858 653.6886 692.6788 526.912 181.5992 187.3474 534.0834 713.8652 748.2985 660.5229 675.6588 842.6858 856.8794 794.4487 666.5129 485.966 346.0483 316.4396 419.1483 596.4323 681.2531 704.1582 758.5266 898.0802 1057.135 1273.846 1446.808 1424.177 1465.676 1786.302 1647.73 1576.618 1725.858 1756.531 1821 2213.474 1991.682 1979.604 1984.325 1992.996 1984.801 1961.761 1938.759 1923.694 1918.479 1904.998 1889.606 1878.895 1879.466 1874.306 1866.84 1881.087 1882.52 1860.595 1792.628 1691.615 1579.465 1467.152 1330.646 1193.227 1092.4 1018.03 952.6169 895.4517 853.8733 814.5297 770.6625 725.8506 706.931 709.9844 722.0649 720.6414 703.0114 699.108 723.7651 741.0332 734.7722 742.0267 745.1543 738.9303 717.5909 683.3997 643.7211 604.151 552.7999 538.5565 529.6826 530.9658 532.3544 534.1353 536.2897 537.8617 539.556 540.9395 542.0533 543.0803 544.5535 543.049 541.8171 535.698 528.7964 522.4126 507.7571 497.6548 479.1001 463.0099 450.2323 425.6304 410.9559 383.7971 361.3661 344.2966 320.6093 297.674 270.0442 249.3644 227.6572 210.5823 185.6261 154.0369 127.8879 103.1345
-709.1277 -695.7385 -681.8263 -670.4448 -655.1703 -633.6211 -612.6213 -590.0305 -569.345 -538.5899 -502.4676 -481.0208 -470.3389 -470.4057 -480.5992 -503.4482 -523.4699 -540.3524 -550.127 -562.771 -577.9466 -589.2723 -601.1955 -610.727 -624.4908 -641.1547 -652.8534 -658.7261 -660.932 -671.0627 -699.2927 -697.7577 -690.3976 -681.9747 -650.5926 -620.8758 -585.0231 -534.3773 -498.621 -434.4519 -350.2521 -283.123 -326.752 -305.5008 -283.5561 -268.8568 -264.1148 -248.3231 -222.0544 386.9769 741.4061 704.2716 265.168 24.08382 10.16058 13.55884 298.9191 447.3498 633.7566 728.2455 881.0372 1164.034 1212.911 1208.577 1510.741 1560.188 2206.214 2158.469 2583.712 2585.931 2130.647 1983.753 1983.142 1977.695 2079.69 1883.151 1904.396 2078.259 1990.896 1780.979 1689.818 1624.996 1599.466 1636.932 1804.28 1630.469 1584.834 1390.867 1288.527 1236.762 1251.527 1276.214 1382.362 1299.18 1187.726 1081.319 950.77 746.8561 614.4024 611.4077 573.8379 301.4896 177.7043 412.9752 700.4683 846.4478 828.8947 841.6862 896.8838 1345.39 1170.996 1064.688 1021.447 913.3972 773.6406 623.3267 588.1723 639.9308 627.392 584.4832 539.1456 547.4216 643.3063 847.4392 1081.182 1162.87 1393.146 1586.099 1643.832 1468.406 1721.764 1667.437 1757.718 2239.084 2257.78 2266.086 2081.238 2038.839 1987.903 1957.669 1941.168 1938.112 1927.294 1913.933 1896.09 1896.837 1895.618 1897.731 1885.836 1896.599 1900.451 1882.793 1802.963 1698.762 1599.995 1502.905 1336.656 1187.448 1125.819 1081.681 1005.345 906.2676 833.4237 802.2595 761.3409 744.5067 733.5835 705.3381 696.8679 706.2786 719.3313 716.865 702.4518 720.1406 739.1954 741.1644 746.5858 742.8315 723.6694 690.9274 649.9548 609.0417 557.2261 541.9888 530.6575 531.4355 531.7023 532.3268 533.803 535.5453 537.729 539.549 541.3789 543.3988 545.8628 545.2227 543.8961 537.3916 530.0765 523.6102 509.5586 499.5255 480.8154 464.3962 451.4231 426.9304 412.3484 385.7891 364.1844 348.257 326.2195 304.6119 277.9207 257.6797 236.4037 219.6246 194.8031 163.3359 138.6643 117.6205
-707.5321 -694.6614 -681.4866 -670.8693 -656.8359 -636.887 -617.4802 -596.5229 -577.5961 -550.663 -518.4032 -497.9546 -486.7532 -486.114 -494.6975 -514.6158 -532.2762 -547.1491 -555.6395 -566.1328 -578.5075 -588.2134 -598.9923 -607.975 -622.1809 -639.549 -651.3491 -658.1338 -662.2646 -675.8264 -682.8129 -675.9183 -665.6814 -641.4703 -614.9223 -572.1763 -520.4848 -474.8094 -432.0628 -369.1868 -306.0547 -245.5143 -273.9782 -267.2332 -255.4874 -250.726 -242.7887 -213.8784 327.787 750.6846 806.0331 834.199 466.4798 30.34659 -5.703751 56.2175 349.1938 476.3242 643.5206 861.4353 1033.043 1220.161 1486.614 1602.169 1649.694 1861.839 2067.639 2341.321 2887.562 2641.627 2131.939 1966.529 1957.151 1901.49 1886.559 1803.465 1834.032 1904.945 1987.143 1783.4 1694.02 1599.631 1544.307 1487.434 1465.209 1459.687 1465.92 1344.451 1218.367 1173.847 1149.96 1176.56 1206.569 1261.186 1163.816 1010.064 930.6998 740.3071 598.2645 572.71 424.7673 189.1506 309.7394 567.1337 853.7997 1049.475 1162.456 1466.025 1496.49 1512.384 1379.575 1244.843 1191.226 1117.939 1125.026 1085.913 1005.872 981.8595 964.068 874.6498 750.3193 528.3399 392.8413 455.6553 664.0669 977.1581 1165.727 1318.844 1348.202 1540.616 1595.286 1531.604 1779.798 2031.441 1989.331 2207.481 2269.781 2016.901 1979.225 1958.985 1949.75 1947.269 1937.252 1921.52 1903.029 1904.179 1902.095 1912.135 1912.761 1904.76 1905.494 1895.7 1833.375 1742.037 1661.19 1584.763 1464.991 1282.538 1160.066 1078.778 974.6565 932.9149 893.3235 831.6887 792.6796 766.613 756.1569 739.4521 699.9087 669.2365 675.2161 695.715 702.2642 703.8132 717.7843 742.8085 747.7861 743.0905 724.9956 693.8925 652.9247 612.494 560.0568 543.9471 532.3743 532.5955 531.7072 531.7174 533.3414 535.3044 537.6617 539.8688 542.3914 545.0331 547.8644 547.368 545.8475 539.0347 531.4313 524.8285 510.7423 500.2848 481.09 464.1371 450.9961 426.826 412.6127 386.896 366.5846 352.3817 332.2305 311.9689 286.0857 265.905 244.4429 227.2242 202.2155 172.1379 150.5372 134.1508
-704.7263 -692.4192 -679.6879 -669.7161 -656.2731 -637.5345 -619.9861 -600.8727 -584.0041 -559.3397 -528.9382 -509.0456 -497.5421 -496.3057 -503.2938 -520.0837 -535.3583 -548.3701 -555.6531 -564.8406 -576.084 -585.0462 -595.229 -604.1018 -618.4904 -636.8798 -648.4108 -654.7943 -658.7486 -662.8675 -667.59 -656.281 -636.771 -620.222 -586.831 -515.2502 -468.6902 -411.9444 -372.426 -327.2065 -268.1408 -207.3992 -237.2011 -230.3974 -236.1034 -225.9463 -207.3953 179.3958 744.7515 887.1431 892.741 900.7192 680.2808 40.72452 21.00488 53.0499 206.4477 524.1266 668.3425 954.5114 1239.721 1389.596 1833.01 1803.951 1826.545 1949.217 1979.348 2787.169 2803.099 2731.032 2282.28 1979.914 1903.57 1854.543 1800.672 1750.961 1747.155 1778.538 1876.861 1869.995 1687.85 1594.972 1500.929 1413.9 1365.786 1344.707 1342.078 1303.836 1175.558 1138.957 1077.906 1073.093 1098.954 1188.553 1089.655 1016.312 888.1527 714.233 586.9937 521.3655 267.8312 185.855 403.1937 694.2578 856.7769 925.1977 1048.548 1145.667 1268.494 1477.196 1425.24 1404.229 1382.806 1275.817 1079.967 1149.289 1165.191 1152.388 1166.681 1165.739 1104.528 904.0715 643.3381 454.6368 398.141 556.9461 887.684 1115.018 1218.202 1398.226 1390.907 1544.352 2041.998 1929.444 1868.964 2111.229 2288.819 1991.992 1974.254 1960.257 1955.775 1958.384 1943.177 1925.896 1917.173 1909.971 1896.3 1907.11 1921.399 1921.133 1921.14 1917.052 1873.403 1795.557 1726.284 1629.184 1514.509 1369.897 1221.515 1045.867 932.3024 880.1049 863.95 817.7418 782.946 805.5604 800.8074 781.1078 773.1102 737.3867 701.6942 695.9697 701.9747 704.401 706.2821 745.9991 749.7227 742.2231 723.2886 691.3191 653.4963 614.2135 561.3973 545.5125 534.1091 534.448 533.3696 533.3126 534.8247 536.4473 538.7821 541.4346 544.605 547.6144 550.184 549.2416 547.2201 539.9293 532.0273 524.9694 510.3865 499.5474 480.3568 463.4026 450.551 427.1122 413.3823 388.4603 369.5552 357.2875 338.9119 319.7001 294.3547 274.1354 252.3365 234.3647 209.5608 181.6268 163.801 152.043
-705.6956 -694.8856 -683.2924 -674.1125 -661.6818 -644.5292 -628.6752 -612.0457 -597.3202 -574.6133 -546.3745 -527.7209 -516.3059 -513.5005 -516.5245 -526.8864 -537.0187 -545.8272 -551.045 -558.3517 -568.0662 -576.1266 -585.2743 -594.074 -609.1495 -628.5414 -639.5421 -643.8512 -643.1845 -644.9644 -635.4287 -616.4268 -593.4285 -567.6929 -509.9015 -432.9258 -376.3882 -305.0587 -286.0468 -245.4708 -192.9464 -161.8174 -196.4758 -205.7894 -200.6966 -180.0384 -28.58701 698.5163 785.7117 873.3593 933.0938 904.4034 767.0672 66.9277 63.76117 110.9387 172.8798 415.4349 591.7385 840.2304 1101.261 1458.241 1836.576 2078.92 2039.224 2390.03 2449.802 2780.021 2631.761 2569.681 2449.442 2111.175 1857.791 1796.974 1732.227 1719.518 1697.484 1694.559 1794.982 1872.445 1655.689 1551.555 1448.365 1396.435 1307.426 1271.9 1248.538 1218.231 1161.172 1077.426 1026.821 992.7518 1007.755 1050.48 1037.485 954.1483 833.14 667.9545 577.2655 398.3113 142.3512 192.4051 457.4975 806.8203 916.9204 900.2068 887.7792 970.5062 1513.103 1491.853 1643.404 1476.888 1461.889 1213.957 1085.578 1671.483 1461.006 1218.266 1214.566 1208.803 1217.914 1314.312 1070.068 810.8226 583.2868 507.4637 634.8968 861.3513 1149.267 1314.865 1358.798 1455.342 1878.626 1783.045 1747.47 1954.006 2272.209 1989.055 1960.37 1942.748 1946.669 1967.549 1966.697 1955.909 1935.316 1919.439 1889.963 1905.059 1918.23 1912.489 1928.214 1929.917 1895.643 1826.359 1820.875 1745.613 1584.136 1415.926 1201.734 1003.206 874.4263 786.3862 761.7484 759.4396 727.8958 695.3722 723.0723 753.5768 786.194 816.365 801.5465 767.9003 758.8536 761.1957 751.2526 743.2545 745.744 737.9089 719.2742 689.3047 653.0582 614.387 561.9667 546.1057 535.3188 536.9386 536.7111 536.7629 537.4934 538.5466 541.0087 543.9596 547.2303 549.8779 551.6327 549.8097 547.2146 539.7963 531.7019 524.3118 509.8301 499.3495 481.385 465.9001 454.1661 431.7806 418.8828 395.3917 377.808 366.5841 349.3666 331.1384 306.608 286.7314 265.3121 247.4866 223.8607 198.2556 183.5226 175.5918
-706.0768 -696.7357 -686.2914 -677.6166 -665.4949 -648.8318 -633.7407 -618.2005 -604.1797 -582.7633 -556.3724 -538.5664 -527.1092 -523.31 -523.7974 -530.1049 -536.7903 -542.8531 -546.8352 -553.4421 -562.804 -570.8645 -579.9738 -588.815 -604.0292 -623.4166 -633.9554 -637.1639 -634.744 -628.503 -612.1921 -594.65 -570.309 -525.8994 -466.0074 -391.0386 -322.109 -266.9756 -242.1129 -199.2018 -155.1831 -130.6772 -175.115 -177.1884 -167.8126 135.0594 566.8831 706.4642 855.4151 925.5326 978.4928 978.4764 878.2696 183.8605 101.1502 130.946 151.5973 395.7079 590.1644 820.3859 1076.577 1334.968 1704.301 2144.642 2483.47 2753.289 2724.769 2564.994 2419.983 2477.163 2226.824 1972.976 1869.256 1796.68 1689.526 1678.601 1656.789 1646.114 1621.83 1705.722 1619.849 1526.961 1409.648 1323.829 1249.373 1209.89 1178.279 1135.444 1100.414 1018.324 982.5315 936.2531 910.6811 933.9771 931.4159 841.5878 759.5096 558.7295 405.7269 191.5851 83.79736 235.6378 615.1781 905.5118 953.4423 893.6719 868.2635 896.5305 949.9051 1430.923 1559.414 1636.66 1515.105 1166.654 1263.662 1590.721 1332.939 1330.271 1249.064 1235.015 1315.806 1324.937 1394.616 1205.201 972.3398 769.1215 727.8171 770.8506 878.1099 1183.326 1352.069 1382.768 1457.15 1676.002 1857.063 2025.271 2094.084 2032.374 1931.59 1905.177 1937.416 2090.737 2105.793 2020.472 1906.79 1885.474 1846.052 1857.267 1901.665 1888.466 1880.617 1870.03 1847.414 1780.822 1734.342 1721.176 1587.955 1389.941 1165.189 1001.149 899.52 814.1492 765.7006 745.4613 717.394 640.842 615.3916 636.6793 672.6396 739.9323 803.3817 809.5256 790.5427 790.1993 803.798 733.2678 734.0746 730.0081 713.7181 686.359 650.5219 612.6599 560.8416 545.9143 536.1268 538.9852 539.7262 539.9072 540.1759 540.9962 543.5712 546.7034 549.5648 551.2992 552.0858 549.2494 545.8427 537.973 530.1245 523.0753 509.1553 500.3218 484.5251 470.7988 460.4059 438.9646 426.5256 403.499 386.2004 374.9178 357.5228 339.4681 315.3428 295.6106 274.4829 257.5826 235.2372 210.5095 196.4229 189.6185
-708.571 -700.7057 -691.3963 -683.0876 -671.6504 -656.3391 -642.842 -628.7655 -616.3589 -597.6128 -573.1016 -556.5969 -544.6627 -539.1299 -535.7009 -535.7695 -537.5444 -539.9481 -542.0285 -547.1193 -555.5778 -563.29 -572.0775 -580.7396 -596.2473 -616.1323 -626.2211 -626.6572 -620.6812 -607.8568 -585.2907 -558.5471 -517.3007 -473.7207 -406.4076 -315.589 -252.2629 -202.103 -171.4473 -134.6978 -106.4841 -100.8563 -139.7156 -150.166 -40.29594 544.104 672.0381 778.8474 868.2129 957.0874 1005.705 1009.778 786.4401 195.0982 157.1522 177.9189 286.1418 390.2264 606.4106 987.8149 1252.615 1569.535 2025.527 2255.798 2591.698 2249.941 2088.119 2012.748 1992.11 2481.392 2097.951 1989.19 1905.827 1832.735 1637.818 1587.126 1588.929 1588.371 1558.399 1526.353 1497.907 1463.024 1373.986 1279.466 1224.688 1163.782 1128.228 1053.856 974.7518 913.4355 861.8589 849.1137 850.6223 839.9185 828.0894 771.6558 599.9601 315.6523 136.0216 61.97626 125.5964 462.2017 807.449 1035.666 1314.432 1031.828 989.2502 900.1294 928.6167 1359.597 1506.137 1678.353 1618.181 1512.738 1526.04 1842.23 1662.603 1393.124 1271.85 1271.295 1398.207 1383.26 1701.569 1346.5 1281.612 1091.893 907.8854 909.0978 924.4949 1022.522 1254.219 1368.938 1449.714 2144.507 1965.46 2065.76 1892.309 1902.826 1870.167 1876.469 1856.541 1872.552 1784.55 1767.076 1730.143 1718.091 1667.019 1633.102 1654.632 1699.086 1723.818 1718.32 1695.315 1650.609 1539.033 1455.446 1382.932 1276.64 1188.983 1129.42 1019.779 934.0286 880.5325 832.1908 758.9122 637.7468 584.2552 555.3044 553.1428 565.8599 613.3738 682.6487 721.0261 723.2213 730.6895 718.4373 718.1437 717.1289 704.3187 678.4534 643.7184 607.9929 557.7809 544.6604 536.0212 539.7871 541.3063 542.1798 542.8354 543.8944 546.6107 549.4438 551.4365 552.4666 552.4194 548.8503 544.9142 536.808 529.4825 523.498 511.3898 504.6016 491.1864 479.527 470.7723 450.5835 438.3311 415.1671 397.4486 385.9199 368.5582 350.3169 326.2517 306.9813 286.934 271.8185 251.3082 227.5593 213.179 205.3103
-708.8079 -701.7442 -693.0209 -685.1389 -673.8237 -660.2921 -648.466 -635.86 -624.6496 -607.8555 -586.6683 -571.3363 -559.3057 -552.3794 -545.9766 -541.5571 -539.9132 -539.8897 -540.9285 -544.9812 -553.1294 -561.1685 -569.7328 -578.3327 -594.8178 -615.926 -625.5639 -623.1879 -614.118 -595.1669 -562.0984 -523.8236 -473.8862 -434.8423 -369.686 -287.0195 -220.2991 -164.7953 -133.5779 -106.0283 -86.33665 -80.92287 -112.3191 -109.39 416.901 584.6479 717.0753 813.1747 892.1309 971.7656 1012.297 1064.467 852.0317 258.8409 157.2049 188.6133 405.5938 481.868 613.0316 1057.8 1289.679 1741.511 1885.281 2551.066 2699.957 2041.098 1975.745 1877.515 1902.948 2091.191 2292.681 2262.72 2078 1809.294 1705.059 1469.01 1476.22 1477.176 1494.035 1490.969 1435.51 1373.908 1276.628 1201.833 1137.563 1123.611 1045.859 996.3195 952.8176 847.8685 804.5291 767.8196 787.3486 789.8386 780.6254 701.1716 453.1287 177.3292 39.44916 89.69391 284.454 676.158 920.5715 1425.881 1394.063 1170.71 1114.796 1102.601 1368.19 1599.806 1630.013 1704.24 1871.943 1940.302 2101.104 2113.809 1963.883 1369.132 1324.365 1375.944 1743.393 1415.596 1651.667 1455.311 1372.135 1317.539 1151.084 1050.702 995.1749 1014.74 1102.535 1269.592 1508.468 1635.81 2062.664 1977.349 1866.292 1778.728 1812.102 1782.91 1742.281 1708.285 1673.807 1648.411 1657.574 1570.129 1480.754 1406.099 1355.81 1347.226 1404.324 1452.199 1435.161 1400.852 1307.009 1238.611 1210.122 1135.844 1062.665 1080.247 1068.666 975.1619 919.7947 872.8499 800.4498 717.6106 646.9417 595.2932 558.7924 550.2593 548.3921 577.3794 632.8136 667.5116 669.9178 695.9951 702.5895 701.7535 690.0865 667.2045 635.2108 602.1207 554.5416 542.8132 535.184 539.4064 541.5521 543.4087 544.9823 546.7915 549.5232 551.6459 552.9172 553.5094 552.9446 548.9232 545.4462 538.495 531.6759 526.803 516.7894 511.4712 499.4683 489.5707 481.998 462.2721 449.9281 426.6945 408.4272 395.7633 377.4585 358.5688 334.3043 315.3882 296.3792 282.8628 264.2936 242.0985 227.162 216.2148
-707.5658 -699.515 -691.5515 -684.8842 -675.9131 -663.7946 -653.0829 -641.2864 -630.7723 -615.3608 -595.8525 -581.4177 -569.442 -561.6266 -553.107 -545.3626 -541.3597 -539.744 -540.1899 -543.6633 -551.6622 -560.0896 -568.8724 -577.7838 -595.4734 -617.8392 -627.4595 -623.77 -611.104 -585.694 -541.6027 -492.0871 -443.6669 -412.0931 -349.319 -263.3343 -201.4177 -144.1528 -118.9357 -100.4353 -78.60665 -67.59799 -86.72101 298.1926 614.041 664.8242 753.5077 890.6452 935.1476 1027.303 1041.218 1081.731 896.4297 276.8984 205.3609 228.4668 323.2435 555.5607 663.6405 1286.596 1428.998 1643.977 1869.755 2310.756 2108.697 1935.779 1910.76 1825.414 1835.115 1964.804 1965.224 2288.262 2176.33 1790.887 1538.552 1279.457 1337.743 1351.428 1398.079 1428.688 1418.189 1334.965 1261.632 1166.532 1090.54 1035.812 992.932 927.4711 893.0787 834.6805 791.9631 738.4147 719.9849 728.5899 728.7242 581.8367 302.0995 83.3653 53.74817 210.5317 481.6426 818.5964 1249.382 1788.529 1647.776 1379.629 1283.195 1634.274 1670.542 1698.711 1735.192 1770.349 2002.82 2060.314 2150.154 2116.721 1683.664 1417.115 1403.712 1550.689 1991.76 1980.055 1785.613 1687.479 1438.155 1420.521 1366.052 1237.039 1129.721 1038.816 1058.749 1139.464 1416.778 1488.37 1572.937 1877.073 1878.998 1754.913 1724.929 1722.156 1703.962 1656.657 1601.27 1595.553 1586.569 1506.649 1417.414 1339.154 1277.2 1217.945 1209.376 1254.969 1250.943 1146.791 1021.289 1003.417 1019.947 1016.778 972.7612 971.6254 1021.78 1007.994 955.7582 908.588 829.1119 770.0488 735.833 685.3335 627.8452 592.8574 576.8726 572.0206 591.0448 634.2229 655.3771 671.4744 682.7227 684.7045 675.02 654.3676 626.4324 596.3821 552.8973 542.4553 534.7236 539.1821 542.0979 544.8932 547.5129 549.7867 551.9747 553.7262 554.5328 554.9159 554.4967 550.6965 547.915 542.4613 536.8848 533.0939 524.1646 519.7841 508.4696 499.0597 491.5757 471.7654 459.1427 435.6713 416.7467 402.6326 382.9408 363.7103 339.642 320.9414 302.6616 290.5675 274.156 253.8975 238.5494 224.6678
